# 3D Systems, Inc.
# New Model
10.0128213 32.0810787 -61.2378307
9.7399903 32.5185880 -61.2587295
10.0616841 30.0601125 -61.5150183
9.9796811 28.8076289 -61.7443696
10.1454724 27.0362496 -62.0395355
10.2927350 22.9042899 -62.9393458
10.3238840 24.2974758 -62.6000091
10.3355180 28.2867420 -61.7442690
10.3229275 26.3069011 -62.1461719
10.4659256 30.7335500 -61.2990297
10.6413960 29.1315466 -61.5087487
10.5542503 25.4707932 -62.2694120
10.6906891 27.5126826 -61.7972761
10.6586432 23.4770123 -62.7081767
10.4460949 32.0938192 -61.1117817
10.2106109 32.4674286 -61.1306354
10.4497196 24.8792768 -62.4323003
10.8842356 30.0798900 -61.2816773
10.7732210 26.7868564 -61.9235598
10.8076846 31.1601274 -61.1376353
10.9818643 31.7747034 -60.9985404
11.0628707 28.2115322 -61.5592487
11.0297268 26.1215027 -61.9965680
10.9958891 24.7024205 -62.3280890
10.9920362 24.0001325 -62.4954365
11.0148173 30.6924041 -61.1476190
10.7679255 32.6504335 -60.9433949
11.3721732 25.4002623 -62.0639436
11.1292591 27.0893928 -61.7627166
11.4402510 27.4665318 -61.5988597
11.5193492 29.4834077 -61.1980855
11.4834467 28.7758019 -61.3342412
11.3277612 26.6686063 -61.7960840
11.3152815 31.1076902 -60.9969497
11.3989273 23.4168749 -62.5254586
11.6075976 30.3994883 -61.0199459
11.6255982 31.5792449 -60.8338155
11.6575109 32.3445015 -60.7153848
11.8347155 26.1127502 -61.7741011
11.5867425 24.1300724 -62.3015314
11.6983131 24.7652587 -62.1197820
11.4199016 27.0262994 -61.6949797
11.6452174 22.9089372 -62.5805780
11.7900465 28.1140767 -61.3709725
11.7869200 26.8934518 -61.6191588
11.8653392 31.0634356 -60.8384535
12.2086825 27.4413712 -61.3833368
12.1268602 25.2509918 -61.8854165
12.0257838 23.5614758 -62.3146072
11.8158190 23.1801886 -62.4679737
11.7866360 29.0387906 -61.1984506
12.1040614 28.6981016 -61.1677915
12.3204552 31.6245109 -60.6127791
12.4078160 32.4234068 -60.4683906
12.0966155 32.9960659 -60.4887195
11.4236232 33.3822444 -60.6489293
12.1958274 29.7716390 -60.9486327
12.0423408 29.2147845 -61.0915795
12.4159204 24.3655518 -62.0078370
12.4690970 30.6272637 -60.7223585
12.4970162 26.6673733 -61.4610910
12.1985488 22.8610300 -62.4336116
12.4449879 28.1146765 -61.1785799
12.7117001 25.8144401 -61.5855232
12.7374250 25.0758789 -61.7472753
12.7472552 23.4537050 -62.1272959
12.7388751 27.6521705 -61.1825399
12.7686420 27.2109974 -61.2644888
12.6100155 29.1046370 -60.9412417
13.2180294 32.1339853 -60.2465421
13.0208470 31.2267877 -60.4517385
12.5753479 28.5552926 -61.0543638
12.7642490 33.0315605 -60.2673590
12.9347611 29.8283435 -60.7124679
12.7401305 28.3179991 -61.0500984
12.9617983 28.0563347 -61.0339157
13.3549273 30.5094961 -60.4619272
13.0931633 24.6821418 -61.7318153
13.3259436 24.0501389 -61.8087947
13.0051421 22.6617120 -62.2386076
13.0875753 26.3735186 -61.3474213
13.0894855 26.8562380 -61.2420402
12.9805394 28.5655614 -60.9289818
13.3493850 25.2927784 -61.5114793
13.3138532 27.4609923 -61.0457808
13.3608943 25.9615574 -61.3556691
13.4442048 29.1332994 -60.6769323
13.5247912 23.2620873 -61.9335994
13.7571953 31.2613323 -60.2047704
13.6490166 24.6546324 -61.5669414
13.5453800 29.8545621 -60.5143309
13.5563686 28.2560680 -60.8093627
13.9686884 31.9203585 -60.0268058
14.0122194 32.5303823 -59.9162355
13.5219991 33.0797806 -60.0047037
13.8898026 24.2235456 -61.5923777
13.9799165 23.7512067 -61.6739877
13.8241639 22.5352589 -62.0101765
13.7863895 26.5917871 -61.0818975
13.9228459 30.6230299 -60.2568574
13.8528757 30.1816296 -60.3567064
14.0308281 25.1376107 -61.3329299
14.2218489 24.5746542 -61.4028312
14.3022807 27.6364014 -60.6936589
14.2822070 23.1579226 -61.7140867
13.8789127 25.7598162 -61.2390898
14.3603627 30.8880210 -60.0635372
14.4771794 31.5607898 -59.9090680
14.2875798 24.1148993 -61.4897609
14.1506204 29.6469145 -60.3537187
14.3415406 28.7129004 -60.4661442
14.5870103 23.7320773 -61.4797212
14.3029671 30.3014535 -60.1854995
14.6610150 22.4796049 -61.7459938
14.3965092 32.1347862 -59.8442741
14.3743297 26.0593314 -61.0104948
14.8963584 26.6628340 -60.7013553
14.7749586 24.3183281 -61.2799861
14.7170126 25.0287615 -61.1327402
14.3848518 25.5444981 -61.1244328
14.6994013 29.9770068 -60.1085052
14.8814721 29.4040572 -60.1519533
15.2392182 21.7811875 -61.7078505
14.8461917 30.5244364 -59.9589162
15.1331844 23.2180115 -61.4125505
14.8721999 31.0881156 -59.8507933
14.9072586 28.1903148 -60.3798553
15.3230252 27.6096277 -60.3543408
14.8464721 32.0615135 -59.6952848
14.6943955 32.6187797 -59.6603118
14.9351107 25.7588513 -60.8908385
15.0819942 23.8592420 -61.2828806
15.1593089 31.6029452 -59.6594550
15.1581662 28.7555475 -60.1813607
15.3253861 30.0338417 -59.8796271
15.1899885 24.6889573 -61.0518828
15.3596429 24.2583100 -61.0934459
15.4999001 25.2068490 -60.8217195
15.5291781 30.8892243 -59.6496016
4.9596904 25.6302580 70.3545809
4.8045162 27.7634319 69.9247569
5.1551433 23.5533509 70.8156005
5.3435750 22.7469783 70.9874630
5.1971911 31.7272432 69.0734684
5.3462978 29.3362383 69.4891885
5.1719411 26.8765874 70.0324252
5.1861154 27.4639055 69.9035823
5.0972989 28.0876122 69.7941929
5.4987809 28.5430662 69.6116537
5.5221659 26.1996929 70.1069236
5.6162258 24.0456723 70.6004873
5.7511004 25.2905749 70.2691078
5.7986602 24.6044006 70.4247802
5.7802559 26.9677229 69.8799193
6.1559500 31.2187821 68.9343512
5.9833918 29.5941960 69.2890286
6.3207666 30.2411392 69.0807179
5.9089903 23.2894868 70.7363859
6.0162977 32.5607769 68.7204972
5.1958775 32.3435478 68.9613074
5.6920373 27.7962573 69.7219148
5.9020105 28.9463010 69.4372207
6.1667697 28.2999519 69.5086047
6.2562865 24.1471734 70.4459473
6.0387268 23.7601567 70.5880895
6.1552837 25.8376449 70.0540021
6.0564154 26.3659973 69.9531212
6.4415052 27.4336897 69.6309507
6.2028863 24.7642100 70.3025237
6.4578336 25.2325255 70.1346472
6.5322653 28.9646015 69.2854449
6.5432629 29.6217538 69.1492110
6.4108591 26.6671628 69.8074922
6.3795033 23.5776901 70.5676451
6.6923681 22.9734089 70.6657320
7.1101105 30.6184720 68.8132346
7.0289169 31.6986777 68.6259791
6.4267968 26.1831209 69.9143559
6.8745064 29.9334396 69.0063983
6.9551123 28.1317923 69.3609342
6.7330166 25.7853083 69.9422807
6.7622908 24.5719105 70.2352151
7.0104026 23.7401482 70.3985244
7.0234961 29.3774772 69.0823272
6.7929616 26.2865331 69.8108301
6.9856490 26.7961416 69.6509778
7.1237120 27.4054799 69.4814548
7.1781529 28.7922863 69.1667348
7.1592359 25.1762401 70.0001270
7.6760063 22.8471272 70.5007166
7.4252160 26.0267947 69.7340965
7.3924689 29.8085567 68.9044446
7.5050876 24.3988167 70.1237991
7.5141904 27.7012512 69.3243891
7.7565457 28.3477381 69.1230372
7.5896257 31.1683975 68.5847402
8.0093686 31.7899883 68.3561862
7.3019476 32.8275748 68.3442354
6.9016060 32.3166922 68.5419291
7.7864248 30.1771257 68.7312037
7.7550351 30.6962151 68.6349720
7.7417395 26.9851591 69.4349781
7.6435129 29.1505251 68.9782351
7.8217974 23.6896984 70.2429637
8.0941552 25.0681490 69.8240772
8.4982077 26.1191707 69.4674104
7.9387911 29.5968428 68.8121244
8.0554057 31.0346428 68.4912428
8.0149230 27.6541784 69.2163557
8.7314155 23.3059190 70.1504946
8.2474453 30.4801650 68.5522780
8.2068611 24.1662636 70.0341687
8.5957861 28.9892796 68.7764063
8.4236739 28.0337129 69.0316483
8.6607225 27.2188708 69.1623464
8.2948804 29.8628621 68.6671063
8.9064101 24.3764706 69.8222518
8.9921635 25.2299793 69.5776418
8.6869327 31.0364831 68.3254823
8.7579228 31.7355953 68.1678876
8.5593434 32.2560631 68.1205317
8.1052184 32.5581245 68.1842491
8.9237299 30.0740730 68.4602335
9.1125062 27.9708859 68.8750446
9.9159162 23.7970613 69.7458908
9.6628545 22.8691399 70.0649545
9.3375137 26.5011583 69.1712424
9.2712101 25.8187708 69.3594366
9.4027640 30.6895059 68.2038367
9.4272960 31.4525403 68.0415630
9.5293857 27.2842366 68.9322725
9.4764447 29.3951202 68.4600398
9.8276511 28.4858551 68.5725957
9.5312605 24.6920157 69.5932135
9.7840922 30.0703719 68.2311207
9.1133416 32.1437828 67.9912567
8.8700252 32.5796567 67.9734498
8.5044233 32.7294804 68.0444092
9.6858032 25.3076907 69.3924502
9.6639395 27.8246682 68.7692314
9.8701566 25.9371866 69.1834465
10.2257291 26.6341288 68.9167976
10.4543148 22.7728132 69.9098110
10.2046216 30.8171604 67.9563135
9.7319437 32.1393497 67.8189099
9.3401643 32.7023789 67.8178892
10.1853013 24.7434229 69.4223493
10.2030830 27.5637936 68.6932951
10.2684898 29.3622725 68.2554767
10.1065282 31.6095836 67.8197742
10.2990782 25.4187509 69.2131743
10.8636320 24.2337827 69.3957284
11.0356268 23.3664941 69.5990175
10.4466649 30.0896578 68.0454820
10.4331458 25.9389523 69.0428838
10.4121547 32.1590379 67.6194355
10.0017237 32.7724814 67.6143914
10.7495403 28.0689839 68.4273094
10.5816368 28.7237912 68.3166534
11.2457694 27.0915423 68.5364231
10.9916972 26.1228476 68.8528568
10.8484617 24.9987878 69.1889971
11.3122426 22.5128476 69.7795749
10.7665043 31.4824656 67.6559880
10.6508844 30.4468088 67.9101199
11.0719912 30.7010412 67.7343234
10.8022271 25.5759135 69.0453574
10.8982716 29.6648368 68.0137500
10.8910063 30.1817283 67.9003969
10.8874366 29.1150324 68.1422651
11.1825773 32.1882702 67.3853010
10.6951594 32.7639766 67.4120486
11.1915097 28.5940934 68.1810305
11.7162541 23.8648951 69.2867190
11.5064848 24.6155411 69.1281334
11.4674326 27.9627927 68.2586133
11.4597380 25.3912155 68.9269081
11.4010898 30.0094672 67.7935481
11.5126316 29.2367563 67.9397881
11.9774286 22.9981560 69.4715306
11.6339056 31.4201266 67.4128383
11.9911628 22.2625732 69.6855560
11.8051376 26.1001829 68.6459541
11.9731640 30.5504613 67.5038844
11.9683119 28.4657162 67.9958612
12.1962782 27.6003107 68.1478754
12.3516656 26.6842376 68.3428124
11.8965209 32.1239084 67.1805516
11.6179017 32.5416997 67.1782345
11.2694064 32.8225940 67.2263354
12.0757436 29.7245476 67.6634833
12.1859992 29.0907752 67.7818581
12.1140396 24.8615313 68.9018518
12.0542413 24.3279021 69.0678507
12.1702058 25.4517961 68.7237531
12.2316554 31.7042358 67.1680346
12.3284515 31.1839152 67.2540590
12.3006096 23.5341080 69.2323446
12.2942878 23.9574853 69.1112727
12.6540642 32.2089493 66.9222027
12.0680062 32.6695740 67.0089349
12.6252584 25.8569494 68.4903339
12.7638131 23.1154878 69.2339689
12.7153890 30.0956201 67.3858970
12.6020312 30.7139922 67.2766864
12.6825999 29.3653216 67.5701797
12.7048148 28.6656804 67.7348152
12.5386138 28.1189922 67.9197833
12.6480618 24.3276898 68.9117908
12.6521615 31.5738246 67.0659393
12.8541300 25.0438843 68.6528236
12.9789542 27.1510631 68.0440441
12.8404098 27.7370624 67.9304302
12.8880236 31.1302636 67.0923367
12.7574448 23.7198155 69.0586045
13.2702449 26.3094027 68.1874156
13.3067798 25.5515017 68.3862343
13.1153921 30.6016803 67.1435744
13.2565247 29.5865033 67.3432872
13.1748747 29.0293489 67.5052181
13.1641040 31.6287503 66.8896735
13.4387081 32.1717784 66.6740686
12.5917858 33.0390334 66.7578280
13.1953489 32.7357501 66.6255057
12.9963262 28.1333886 67.7840263
13.3206211 30.1202890 67.1939477
13.4074995 28.4625348 67.5782189
13.4550547 22.7027871 69.1727251
13.2798916 24.4134422 68.7162206
13.1834922 23.9558890 68.8753501
13.4744225 31.0649015 66.9205710
13.3537203 23.4132409 68.9885989
13.8363484 24.8372089 68.4384033
13.5045666 27.6885945 67.7499548
13.7040699 30.4727536 66.9878349
13.8395233 29.0665720 67.2930256
13.7236128 26.8937703 67.8983107
13.9496941 25.7096589 68.1587532
13.8252471 29.8365597 67.1045706
13.8804652 31.6035450 66.6599572
13.9650609 26.3233930 67.9837689
13.8730677 23.8949694 68.7028840
14.2454095 28.1936154 67.3930049
14.1011616 30.9350509 66.7469278
14.4004263 30.2632730 66.8125749
14.0808737 23.0747592 68.8899308
14.0815023 22.4194881 69.0868944
14.3609270 27.2545163 67.6100329
14.4494288 29.4986721 66.9895187
14.5446984 28.8517214 67.1262443
14.2760081 26.6410727 67.8045377
14.7095714 25.1711290 68.0873618
14.8769915 24.0700599 68.3601946
14.6139823 26.0669105 67.8615347
14.4467885 31.3307494 66.5346012
14.4993374 31.8416841 66.3921610
14.0380133 32.2262272 66.4590672
14.4871045 23.4858803 68.6514080
14.7072375 30.8560524 66.5621683
14.9573991 27.6678018 67.3119277
15.1329869 28.3596162 67.0665875
14.6383131 22.5383602 68.8937381
14.6573950 23.0469536 68.7352642
15.0311058 29.8290383 66.7119697
15.0794275 29.1315336 66.8783486
14.7288647 26.6702268 67.6585957
15.1152564 27.0283725 67.4377307
15.0027871 30.3953290 66.5765703
15.0461253 31.3995667 66.3090497
15.3873134 25.5939215 67.7565560
15.2923688 26.3623185 67.5669611
14.5506477 32.3714353 66.2455186
15.0296586 32.0960581 66.1423281
15.3415157 21.9813716 68.8560307
15.2530726 30.7933297 66.3876981
15.5937774 24.7477107 67.9392368
5.1107043 41.1916487 -61.1490086
5.3833281 40.3170846 -61.2556115
5.1903822 37.9628278 -61.7040731
5.4783695 38.7393460 -61.5162216
5.1796692 37.3930298 -61.7953576
5.1303357 33.7335542 -62.2706823
5.2376734 34.3121029 -62.1729083
5.0133984 33.1451409 -62.3710863
5.6583933 34.6371308 -62.0404147
5.8546327 35.3321135 -61.9148575
5.4853857 37.0910503 -61.7797673
5.7151588 36.5818962 -61.7984533
5.6165652 39.5473018 -61.3483898
5.4187826 42.4796678 -60.8412661
5.6163543 41.7766608 -60.9334596
5.8275461 33.8698849 -62.0957687
5.5097132 33.2542509 -62.2457042
5.6360532 37.5357531 -61.6854578
5.7951333 38.0390137 -61.5720190
6.0344865 42.2862358 -60.7446991
5.9990264 43.0702455 -60.5969876
5.8801677 35.9907150 -61.8341155
5.9225378 37.1233411 -61.6872199
6.3711503 34.6036106 -61.8828461
6.1016739 40.9258083 -60.9908216
6.4107482 41.7116620 -60.7714690
6.3192253 39.9117284 -61.1353554
6.1768955 39.1537026 -61.3019131
6.4220703 38.3642539 -61.3828003
6.2314607 36.2993181 -61.7238507
6.2230616 36.7982164 -61.6657063
6.7437743 33.6760208 -61.9038828
6.3078874 35.7791707 -61.7649779
6.4710444 35.2878720 -61.7821030
6.2193298 37.5578776 -61.5583695
6.6935830 42.3927493 -60.5738349
7.1082911 43.1993082 -60.3140593
6.3922987 43.8870378 -60.3438057
6.2375753 37.1433049 -61.6179891
7.0276596 35.0546129 -61.6748929
7.0293294 34.3725011 -61.7527030
6.6134655 36.0923782 -61.6599694
6.8019456 35.6723815 -61.6611876
6.6475770 36.5455560 -61.5985766
6.5704426 37.0796099 -61.5481772
7.0079304 39.1912535 -61.1143596
6.8404949 41.1579907 -60.7831031
6.9781160 40.4093787 -60.8973764
6.9162706 37.5878327 -61.3921992
7.5373012 33.9286141 -61.6788380
7.3844530 33.2121551 -61.8033819
7.3114214 38.2587537 -61.1995459
7.1521266 41.7317823 -60.5976135
6.9113513 39.8303308 -61.0236526
7.0807240 36.1672044 -61.5360625
7.1597071 36.8349403 -61.4349842
7.3181530 35.6573835 -61.5343750
7.4757142 34.6040279 -61.6149791
7.7406098 35.1918265 -61.4791028
7.5305775 41.0163738 -60.6503375
7.4206428 42.3627384 -60.4089238
7.9474831 36.2057909 -61.3077544
7.3083821 39.8141406 -60.9357879
7.7265440 38.7733988 -61.0211827
7.8279972 39.4323207 -60.8810186
7.7895550 37.4267995 -61.2014346
7.7835526 40.2206779 -60.7446209
8.0529721 34.4771408 -61.4807978
7.9356814 33.3377570 -61.6469719
7.7723525 32.8923613 -61.7434420
7.9948595 41.7555235 -60.3909269
8.1308978 42.7429527 -60.1591952
8.1710489 33.8368118 -61.5260080
7.9769297 38.2184274 -61.0476173
8.6349091 35.1582654 -61.2467863
8.1846537 32.8629166 -61.6402328
8.4020114 40.8394150 -60.4725294
8.4879668 38.7871861 -60.8258583
8.5742595 33.2990959 -61.4839569
8.7689338 34.1478996 -61.3300540
8.6262152 39.8350768 -60.6075600
8.6503895 37.0294079 -61.0310137
8.5652303 37.8658846 -60.9465167
9.2207538 36.1874364 -60.9691739
8.2232794 36.1243486 -61.2435117
8.6241746 42.0905128 -60.1692013
8.6862715 41.5177755 -60.2676086
9.0152537 42.6213779 -59.9646755
8.8020330 43.4643254 -59.8476529
7.9349354 43.7161587 -60.0096509
9.2886398 33.4846638 -61.2657890
9.2218351 34.6624181 -61.1443184
9.4762463 34.1299064 -61.1355305
9.0548294 40.4712409 -60.3792854
9.1195712 41.0894044 -60.2414906
9.5136836 35.2401175 -60.9945618
9.3894219 38.2417105 -60.6674999
9.3085086 39.1799808 -60.5462417
9.1212336 37.5091210 -60.8474575
9.5116189 39.9575345 -60.3567250
9.2897108 36.9866341 -60.8648285
9.2832381 41.8264419 -60.0539744
9.7483387 37.4246091 -60.6775656
9.8177074 42.5247401 -59.7797111
9.4236406 43.0881046 -59.7697273
9.6124746 40.6612530 -60.1948276
9.7287754 34.6376486 -61.0035285
9.7439690 36.7776714 -60.7571341
9.5984992 33.0160558 -61.2364784
9.6741114 41.2382297 -60.0661859
9.9762985 35.7612222 -60.8014800
10.0366864 36.3363959 -60.7189909
9.9983690 38.8602354 -60.4070611
10.5326157 38.0810723 -60.3539012
9.8559568 39.4336730 -60.3580326
10.0378683 41.7190455 -59.8754957
9.7379312 33.7260067 -61.1098930
9.7539416 33.3538391 -61.1507893
10.1262396 34.1238491 -60.9485991
10.3184851 35.0317992 -60.7840493
9.9997809 40.3212793 -60.1553917
10.1333987 39.8464352 -60.2079257
10.3148958 40.9093387 -59.9530637
10.0988867 33.0058485 -61.0942878
10.4509899 36.9430110 -60.5245419
10.0555932 33.5409120 -61.0412322
10.3859417 42.1772823 -59.6943721
10.1187853 42.9724641 -59.6133843
10.4412260 42.6877402 -59.5819615
9.8159844 43.1248695 -59.6617907
10.3420857 39.3528417 -60.2331907
10.4288822 40.2511396 -60.0463338
10.8065447 36.0035785 -60.5246238
10.5833951 38.8935059 -60.2307022
10.7466783 41.6511968 -59.6933961
10.4504572 43.1996956 -59.4797730
10.0606726 43.3279239 -59.5576502
10.6714210 39.7980250 -60.0580983
10.5764186 33.4999524 -60.8920455
11.0050794 34.3014561 -60.6622882
10.8210221 39.3114053 -60.0947440
11.0905608 35.1475663 -60.5356507
10.8813299 42.3100553 -59.5332161
11.0257482 40.3977707 -59.8399751
10.9913070 41.0567448 -59.7323105
10.9847914 42.9460667 -59.3829043
11.3115963 37.2670442 -60.2159649
10.9994104 36.6885662 -60.3873506
11.2291453 38.8717763 -60.0301251
11.5665346 38.1388105 -60.0228272
11.2367691 41.9481993 -59.5003776
11.3728317 41.4502956 -59.5500022
11.2781283 39.6550745 -59.8926842
11.4341360 36.5229994 -60.2681600
11.4543792 35.5537832 -60.3748001
11.5143014 36.0237993 -60.3016913
11.4848707 42.4552485 -59.3352206
11.8777417 34.8378122 -60.3212155
11.6369380 34.0824760 -60.4924224
11.8125463 43.3893465 -59.0680726
10.8285071 43.6346605 -59.2904612
11.4928605 40.8860035 -59.6132986
11.9973281 40.2472764 -59.5630035
11.9121335 39.3217243 -59.7416684
11.8966736 38.7049466 -59.8396510
11.6927205 41.8797545 -59.3798310
12.0836394 36.8547365 -60.0150153
12.1112745 37.6123153 -59.9126853
12.2475689 33.8063017 -60.3316389
12.0709212 41.2895791 -59.3675599
11.8907969 36.2791903 -60.1498559
12.2925043 42.2601029 -59.1354743
11.9893262 35.7423238 -60.1796955
12.3012280 38.2831134 -59.7623214
12.4512361 38.9074981 -59.6249923
12.5951543 39.5533182 -59.4786778
12.7709210 35.5034173 -59.9422902
12.8373960 34.5530994 -60.0381792
12.4319373 36.2321585 -59.9737465
12.7653731 40.7744646 -59.2324398
12.8717972 41.5424220 -59.0793379
13.1159881 33.7582082 -60.0486435
12.5947930 37.2777730 -59.7901307
12.8020830 36.7670059 -59.7804822
12.8198387 40.1195362 -59.3155436
12.7876736 37.8308371 -59.6531332
13.0508700 36.2164527 -59.7595945
12.9612423 38.4948589 -59.5045276
13.0047249 39.0914790 -59.4065599
13.3535368 39.6487191 -59.2021458
13.1764980 37.3100638 -59.5811345
13.4340236 35.0458473 -59.7675517
13.5916444 34.3547203 -59.8027594
13.7808397 35.8693302 -59.5379695
13.4649593 36.6921537 -59.5532767
13.3710140 40.3887965 -59.0886362
13.7485620 33.7216556 -59.8346852
13.5551617 37.9948020 -59.3567193
13.8376663 37.2842960 -59.3435764
13.6361308 38.8611816 -59.2119098
14.1947372 34.9389054 -59.5077574
14.1328080 36.6900377 -59.3067631
14.2949186 33.3103016 -59.6986525
14.2291626 34.1039747 -59.6093982
14.2511465 37.7753228 -59.1265969
14.2042935 38.4015478 -59.0629987
14.6152191 36.2439938 -59.1786802
14.5832682 35.6042646 -59.2735223
14.4304428 37.2329168 -59.1269396
14.6616120 36.8067250 -59.0912476
14.8003558 34.4570987 -59.3491942
14.9531337 35.1229161 -59.1990538
14.7528285 33.8376239 -59.4548099
15.1147312 33.2816318 -59.4016723
15.3741883 35.8371884 -58.9364879
15.3310047 34.0337381 -59.2080206
15.3474901 34.6996747 -59.1072440
15.5175598 32.4083455 -59.3902059
13.2255908 42.2283597 -58.8632561
12.8762545 43.0383421 -58.8333942
13.4476693 41.0762988 -58.9636378
13.4186037 41.6386090 -58.8931665
13.7777058 41.8994650 -58.7366447
13.5326115 42.8350233 -58.6730875
13.7982629 42.3881672 -58.6572811
13.8719138 40.6434014 -58.8764697
13.9488913 40.0918312 -58.9254312
13.7635693 41.4595231 -58.8045642
14.0558900 41.1136448 -58.7465651
14.0666123 39.4562371 -58.9714050
14.1089316 42.8670831 -58.4800877
13.6450622 43.6419323 -58.5032515
14.1105773 41.5879115 -58.6640723
14.3424924 42.1119630 -58.5059486
14.2706493 38.9515571 -58.9648373
14.5223849 40.5661725 -58.6437844
14.6063687 41.3745493 -58.5053600
14.4854309 39.8698859 -58.7549731
14.8707787 42.7677035 -58.2224242
14.4615946 43.4453823 -58.2742356
14.6759124 39.3327214 -58.7553270
14.7393718 38.1139778 -58.8939339
14.7213722 37.6201011 -58.9652136
14.7451703 38.7164578 -58.8120632
14.9679640 37.2132994 -58.9193143
15.1215931 41.9155620 -58.2359210
15.1567478 36.6452187 -58.9167550
15.1938833 39.9189703 -58.4668852
15.4749965 40.9758762 -58.2112707
15.2076799 37.7611667 -58.7518103
10.8671309 43.0569276 65.2146116
10.9180296 42.5704308 65.3068423
11.3097690 42.8838991 65.0955439
10.4613015 42.8936817 65.3919950
11.0882018 43.5361043 65.0231466
10.5465893 43.4139296 65.2442053
11.4059160 42.2592871 65.2021542
10.9685864 42.0505367 65.4045567
10.4795331 42.2966331 65.5186400
11.8585015 42.6338986 64.9520606
11.7089329 43.2619229 64.8614988
11.9849565 41.9659652 65.0562420
11.3822101 41.4685048 65.3846711
12.4049112 42.4017347 64.8019910
12.3259434 43.0457294 64.6818578
12.6228472 41.8258049 64.8507476
12.2246137 41.2222296 65.1336014
12.8646335 42.2710106 64.6581426
12.7645358 42.6805504 64.6014288
13.0252559 41.2191302 64.8353547
12.6648992 40.6352356 65.1010051
12.1239806 40.5712351 65.3148219
11.7566939 40.8879966 65.3789863
13.2244164 41.8879464 64.6075457
13.3010047 42.5680615 64.4199103
12.9210455 43.1249589 64.4361749
12.9346605 40.1151702 65.1145652
13.2439360 40.5593589 64.9005398
12.4292690 40.1376970 65.2968958
13.0998567 39.6816023 65.1461780
13.4913251 39.9826057 64.9331138
12.6718534 39.7071540 65.2996898
13.5649461 41.4662473 64.5732731
13.6230048 40.9507416 64.6682382
13.9618916 41.9876799 64.2967150
13.4805469 39.2859355 65.0860742
12.9159056 39.3267833 65.2894452
13.7180435 40.4645279 64.7407100
13.4049905 43.1414768 64.2439052
13.9597300 42.8937636 64.0822724
13.6686489 43.4443802 64.0667379
13.1711317 43.6835587 64.2049015
13.9858006 41.2935950 64.4491464
13.9226755 39.6571308 64.8386031
13.7954056 38.5050029 65.1330352
14.2236250 39.1566567 64.8297146
12.9093435 38.7028269 65.4215068
14.1946655 40.7111868 64.4994080
14.0330093 40.1264504 64.6935999
13.9220804 37.8857516 65.2190521
14.3678552 38.1154977 64.9992600
13.2426852 37.7928652 65.4917061
14.4176623 38.6026241 64.8742914
14.5814037 41.3584337 64.1986206
14.4592067 42.4598679 63.9872104
14.6143399 41.9832468 64.0401393
14.3563626 37.5685170 65.1231036
13.8459727 37.4493860 65.3424710
14.7791319 43.0905074 63.7023598
14.1399764 43.5730666 63.8450906
14.4861331 40.2100980 64.4972771
14.3810334 39.7411250 64.6422878
14.9315102 40.5826196 64.2352477
14.2111694 37.0345898 65.2948469
14.9392104 37.1288471 64.9933442
14.5755401 36.6342366 65.2449280
14.0523901 36.4577435 65.4818267
13.4956948 36.9660147 65.5767396
14.7291450 39.4089594 64.5776466
14.8346424 38.9037430 64.6454394
14.8884943 39.8940369 64.4069314
14.8484185 37.7981886 64.8816004
14.8640526 38.3364931 64.7573248
14.9800191 42.3487425 63.8041347
14.5886121 36.1147970 65.3564110
15.0847891 36.4301093 65.0935546
14.0497377 35.8382463 65.6208992
14.6081615 35.5121978 65.4855967
15.1599664 35.8055495 65.2065128
15.0887705 41.7661890 63.9005527
15.2916759 41.1912501 63.9508739
15.3156286 39.3549353 64.3537641
5.3867805 37.9319116 67.9120272
5.3329039 37.0307341 68.0931583
5.0159218 38.8861708 67.8298101
5.3761103 39.7453681 67.5598830
5.2512824 39.1503647 67.7149072
5.0307112 38.5026783 67.8996444
5.1909229 40.5231565 67.4475059
5.4789577 36.2769514 68.1926832
5.2017230 34.1862738 68.6345920
5.4664584 33.2926027 68.7263161
5.4870783 34.6692242 68.4776083
5.8187158 35.4143046 68.2597756
5.4112496 38.6693291 67.7670911
5.4254630 33.7699503 68.6526448
5.8389218 41.6048989 67.0420080
5.6073773 40.9251302 67.2513768
5.3879470 42.9714583 66.8628141
6.0414793 42.5886475 66.7724758
5.7819863 39.1029678 67.5815567
5.9794579 37.2552536 67.8828359
5.8633490 36.6894417 68.0187345
6.0061761 38.4445004 67.6495880
6.1773164 37.8274508 67.7217543
5.7338108 34.0560153 68.5246438
5.8516464 40.3192267 67.3139170
6.1582155 39.6487527 67.3688352
5.6965533 43.2384610 66.7222664
5.2290335 43.5196869 66.7822212
6.1330823 36.1636616 68.0437163
5.7769166 33.5970297 68.5954317
5.9037865 33.2631730 68.6229542
6.1579533 34.5100872 68.3350191
6.4007132 36.7204621 67.8705871
6.4886357 38.9636308 67.4158111
6.7249392 37.3323709 67.6673427
6.2100990 40.8628322 67.1022385
6.3572121 33.5969627 68.4476942
6.4947009 35.6911458 68.0343434
6.7101098 35.0451507 68.0946782
6.4870534 41.8482497 66.8145940
6.5086931 41.3181446 66.9236332
6.7948042 38.1750166 67.4858913
6.5551167 40.2175561 67.1430826
6.8881526 39.5504646 67.1876445
6.7507755 36.1878648 67.8751543
6.9176345 42.2576666 66.6068718
6.7694797 43.0190042 66.4798766
6.1416333 43.4030406 66.5657893
6.8445052 34.2733450 68.1996569
7.2993929 38.8658233 67.2096908
6.9614551 36.6934836 67.7238926
6.8802112 40.8023745 66.9308156
7.1250568 33.6786211 68.2344064
7.0665847 35.6419310 67.8906068
7.2875777 37.6443751 67.4524754
7.4816784 37.0118208 67.5196722
7.1078250 41.4831899 66.7221919
7.5821704 38.1516255 67.2705173
7.2207679 34.6551165 68.0311322
7.3727700 35.1244919 67.9036155
7.3269103 40.1317663 66.9457689
7.4894982 39.4844040 67.0327395
7.4561555 36.2141803 67.6772371
7.4978154 34.1482759 68.0498779
7.5495038 42.6578633 66.3433596
7.3221941 43.5291193 66.2132725
6.6211480 43.6906554 66.3709268
7.6215775 35.5850309 67.7495822
7.5505408 40.8143178 66.7398944
7.6808943 34.6798748 67.9026395
7.5240312 41.9648588 66.5017217
7.8584468 37.5534706 67.3090294
7.8556594 41.3959995 66.5290803
7.9415515 35.1353139 67.7452460
7.9225218 39.1380936 66.9788420
7.9227034 38.6069193 67.0839548
7.6245381 33.5422643 68.1273565
8.0442866 36.5704261 67.4456805
8.2767978 35.8066559 67.5234720
7.9988586 39.7454612 66.8339282
7.9034083 40.3235219 66.7421818
8.0482997 37.0753296 67.3482195
8.1533305 33.1850946 68.0515245
8.3304485 38.0700417 67.0705587
7.9454258 34.3346447 67.8944662
8.0452627 33.8682458 67.9533780
8.1104171 34.6769765 67.7847713
8.1662256 42.0453846 66.3005710
8.1802765 42.6830277 66.1600381
7.9362858 43.1270674 66.1317036
8.4257163 37.3714268 67.1809018
8.2042590 40.7659188 66.5613711
8.5931355 34.9357314 67.5987527
8.4386095 36.8712321 67.2756508
8.4744953 38.8165787 66.8813065
8.3950749 34.2967138 67.7763224
8.3384067 39.3210053 66.8217987
8.5742623 36.4437029 67.3179477
8.5527748 41.3224772 66.3404241
8.4169162 40.1742943 66.6229799
8.5724732 39.6624878 66.6827932
8.6573940 33.6993784 67.8151995
8.5586505 42.4003936 66.1104321
8.9067901 41.9204459 66.1075413
9.0488531 37.6307964 66.9429526
9.0008816 38.3689888 66.8114871
8.9742709 36.0787213 67.2695711
9.0225590 35.4890712 67.3689246
8.8367984 37.0324291 67.1264380
8.7129707 36.7364176 67.2219768
8.8362014 33.0682360 67.8868294
9.0234010 34.2632644 67.6038563
8.9193508 40.5851938 66.3848594
8.2547460 42.9890044 66.0721436
8.5870735 42.9012775 65.9916773
8.2965977 43.2596989 65.9977868
9.0107452 36.6001613 67.1585500
8.7107671 39.2545499 66.7241961
9.3917977 34.8808803 67.3771650
9.2359148 41.2447825 66.1495328
9.0850005 38.9712900 66.6658208
8.8798730 39.9818793 66.5237755
8.9273164 42.4726531 65.9830570
9.3948599 36.9893946 66.9644475
9.4948355 33.5138850 67.6127672
9.1639040 42.8965017 65.8140257
8.6951125 43.6347462 65.7904074
9.0707690 39.5149440 66.5607303
9.5841754 36.3237634 67.0370981
9.3911141 35.8109884 67.1974272
9.3949018 42.2660857 65.8812821
9.4755581 41.7220145 65.9738407
9.5778983 38.0993858 66.6870475
9.7815450 37.4948606 66.7433515
9.5214220 35.4225263 67.2340170
9.6160257 34.2530459 67.4331859
9.4848853 38.6395380 66.6082874
9.4014928 39.9894044 66.3592219
9.7144358 40.6440198 66.1247224
9.7572953 39.2495543 66.3976148
9.8684654 42.7108221 65.6296462
9.4843060 43.4162021 65.5948594
9.8653631 35.7430093 67.0657977
10.1187760 36.8615352 66.7627007
9.9480590 35.1904444 67.1495497
10.0317653 34.6133448 67.2378466
9.8188985 41.2998237 65.9545064
10.1464791 33.9947529 67.3255175
10.3466604 33.3589651 67.3935115
9.9982433 41.9003367 65.7662377
10.3507154 36.1876152 66.8239668
9.9982098 38.5223590 66.4688051
10.1533681 37.9536971 66.5337369
10.0502549 39.9795994 66.1540926
10.4023460 37.4452360 66.5546954
10.4122786 35.5258062 66.9379234
10.4805622 34.9589922 67.0305490
10.1845711 40.9534052 65.9087971
10.3626223 40.4861532 65.9474209
10.4683051 38.8947092 66.2391260
10.4827788 39.5125374 66.1077201
10.6205251 34.4030224 67.0985281
10.5436575 38.3154452 66.3329437
10.6192296 37.8600769 66.4006323
10.0707719 43.3313027 65.4245391
10.2786161 41.3610190 65.7910109
10.7792234 33.8267908 67.1667233
10.7297217 40.9974568 65.7154992
10.5618834 36.6147608 66.6704327
10.7700229 36.9843058 66.5268451
10.6428713 41.6751280 65.5990690
10.9133832 35.8198434 66.7176172
11.0164406 36.4295430 66.5584579
10.9773856 37.5268608 66.3481951
10.5676409 40.0169007 65.9767017
10.9284613 35.2564417 66.8279827
10.9544015 34.7652547 66.9201836
10.9706158 33.2822166 67.2209114
10.9096402 40.3512828 65.7912940
11.3410940 34.2583098 66.9003278
11.0220816 38.0698368 66.2228391
11.0000838 38.6072658 66.1199391
11.0210953 39.1814820 65.9938380
11.0211466 39.7735797 65.8727586
11.5534617 37.0358787 66.2519485
11.2596275 33.6620361 67.0517907
11.3750305 36.0008366 66.5279999
11.6051547 36.3681130 66.3737431
11.3247884 40.7164879 65.5698553
11.4116836 35.5199464 66.6154027
11.4110177 34.9481218 66.7345151
11.4374077 40.1399471 65.6528026
11.4803594 33.2573391 67.0680478
11.5032066 37.7776250 66.1175549
11.6968788 39.4612923 65.7012239
11.4902826 38.3458734 66.0047308
11.4520844 38.8535820 65.9130588
11.9380364 35.8666889 66.3647726
11.6814524 32.8973010 67.0817420
11.7334221 33.6826891 66.8963194
11.9257113 34.6594900 66.6245893
12.0574217 34.1135599 66.6977242
11.9159492 35.2255329 66.5080473
11.7188720 40.4760912 65.4826984
11.9409850 40.0832556 65.4856414
11.9740888 33.1929512 66.9244975
12.0491171 38.6831202 65.7374337
12.1509060 36.5084447 66.1556125
12.0645054 37.6038961 65.9566373
12.3491576 37.0957181 65.9622028
11.9142737 38.0947366 65.9081191
12.2316154 39.7286788 65.4555112
12.4133416 39.2661840 65.4857382
12.3437168 34.9372514 66.4247498
12.4727832 35.4172364 66.2769228
12.2930426 33.6072668 66.7302236
12.4916732 34.4686694 66.4755851
12.6428092 36.0237993 66.0865456
12.8219519 36.6601124 65.8864826
12.4642048 38.0707644 65.7164901
12.5649739 33.9984857 66.5536821
12.6044871 37.5546552 65.7747164
12.9025979 37.2136347 65.7396093
12.9175223 34.9093564 66.2332997
13.0844647 35.5343781 66.0374388
12.8403287 33.6100571 66.5469989
13.1456675 34.1854915 66.3140193
13.1235020 33.2257040 66.5377527
13.3934394 36.1514390 65.7910928
13.3252088 33.5952044 66.3851574
13.4744793 35.1233147 65.9899116
13.4147638 34.6879438 66.1084577
13.6095267 35.5727077 65.8413246
13.6653753 33.1412405 66.3715228
13.8519593 33.8042118 66.1531687
13.7623092 34.3953855 66.0506561
13.6987148 32.6044224 66.4852932
14.0473312 35.2080129 65.7634959
13.7759559 34.8161831 65.9510940
14.1822780 34.6555673 65.8400282
14.2044285 34.2100039 65.9340471
14.1551355 32.7407233 66.2955940
14.3069467 33.2703628 66.1161244
14.6324225 34.9241868 65.6114891
14.5538123 33.8174738 65.8978075
14.6716740 34.3663581 65.7264739
14.6690747 32.8205712 66.0949051
15.1704354 35.1677537 65.3503761
14.9445618 33.2862921 65.8820868
15.3419720 33.9551307 65.5728802
15.1142627 34.6227773 65.5001700
5.0361403 49.8804525 -59.3138598
5.2939742 50.5732894 -59.0635575
4.9516666 51.0867983 -59.0005033
5.7257302 49.8678759 -59.1521189
5.5113910 45.9340774 -60.1363704
6.2041767 44.8915437 -60.1829141
6.0987403 47.9644164 -59.5468432
6.6311262 48.4881476 -59.2848621
6.5952432 49.4897068 -59.0353310
5.7991995 47.4216715 -59.7492717
5.3644162 46.5952009 -60.0354336
5.9783347 46.7441976 -59.8553829
6.5894085 45.9444746 -59.8740727
6.3564358 47.3317057 -59.6332811
6.9497582 47.6911776 -59.3996160
6.9530527 46.8506441 -59.5904812
7.1525392 44.2331024 -60.0929409
7.3027518 45.1722890 -59.8613061
7.2271465 48.1602028 -59.2166260
7.3650270 48.7064235 -59.0431169
7.4177231 47.2956561 -59.3729205
7.5731212 46.0848808 -59.6008450
7.8006075 46.8823835 -59.3678467
7.9679983 47.7713607 -59.1164939
7.9537574 44.5396639 -59.8352961
8.3312765 45.3475416 -59.5705695
8.4540667 46.3225432 -59.3256392
8.4355772 46.9836779 -59.1814443
8.4475847 44.1235565 -59.8008335
8.5410997 44.6509086 -59.6678369
8.9668911 44.9970365 -59.4878308
9.0595102 45.6795730 -59.3143255
8.7874336 45.3406833 -59.4590604
8.9959409 44.2504138 -59.6375503
9.5185442 46.9678715 -58.9028187
9.6511515 43.7139608 -59.5829152
9.4820727 45.1590903 -59.3225472
9.8668542 45.6275791 -59.1201633
9.5568318 44.5550829 -59.4321489
10.2818534 44.2730524 -59.3038723
9.9496944 44.9375249 -59.2504516
10.2565791 43.6299667 -59.4440512
11.1647807 44.3657674 -59.0519682
4.9711247 52.4041988 -58.5982800
5.0532157 53.3418506 -58.2757667
5.7129073 51.5053198 -58.6931147
5.7977079 52.6543409 -58.3210029
6.1526825 50.4687093 -58.8830225
6.0671084 53.7091941 -57.9126328
5.2717710 54.0755466 -57.9774827
6.3702515 52.1510281 -58.3411939
6.5567852 51.0022342 -58.6339906
6.7138374 51.5896343 -58.4260114
6.6004284 52.8179184 -58.0770262
7.0409630 50.3924340 -58.6814024
7.0234817 52.1961190 -58.1686869
7.7040708 49.5926477 -58.7267317
7.4274251 52.8009422 -57.8819662
7.4530067 51.6299009 -58.2292341
7.5726025 52.2013865 -58.0313206
7.1675084 51.0698147 -58.4624521
8.0760475 50.7535562 -58.3169758
6.9082389 53.4013100 -57.8154251
8.0730636 48.7613343 -58.8464774
7.5023053 53.5933338 -57.6092303
6.9354237 54.0850908 -57.5812347
8.4043536 49.2355153 -58.6407296
8.3819106 49.8403050 -58.4879406
8.0115320 53.1783849 -57.6183721
8.0199447 53.7549891 -57.4306697
7.7051441 54.3377288 -57.3114082
8.1647215 51.9897044 -57.9420254
7.7922209 52.4024740 -57.9158552
8.0020335 52.6267290 -57.7935651
8.5025048 53.5268821 -57.3839918
8.3759632 54.1356243 -57.2167262
8.9288093 48.5209227 -58.6827807
8.5857026 47.7845706 -58.9508638
9.1399541 47.1640937 -58.9549802
8.6118579 52.7708679 -57.5922243
8.9384923 49.4845137 -58.4369674
8.8791642 51.4383540 -57.9183139
8.7901168 50.1551554 -58.2982711
9.1080144 50.7123657 -58.0633357
9.1324579 53.3874147 -57.2666824
8.8630496 53.9326109 -57.1617223
8.9295926 52.1162450 -57.7081516
9.4490144 50.0053354 -58.1661016
9.6808281 49.1735898 -58.3224073
9.9229813 48.2791252 -58.4838204
9.5926663 47.9467437 -58.6489066
9.5393239 52.5796711 -57.4092604
9.4529875 51.8148094 -57.6604083
9.5446976 51.2640104 -57.7949174
9.9119414 50.6823361 -57.8600727
10.2687059 49.8473123 -57.9921305
10.3735263 51.6891927 -57.4525297
9.8595135 53.4433685 -57.0613295
9.4205067 54.0702268 -56.9737852
10.5814105 48.9248708 -58.1505448
10.4175666 52.8440364 -57.1003221
10.9083029 47.8229970 -58.3418384
10.2226213 47.9003489 -58.4984347
10.6307985 45.9512845 -58.8531047
11.0059390 46.7374921 -58.5784651
10.5123678 47.2600423 -58.5786067
10.2823433 46.4356542 -58.8307939
10.5493302 45.0722240 -59.0663739
10.5933631 53.6462292 -56.8057783
10.0587960 54.1276671 -56.7905158
10.7323462 50.5976975 -57.6669127
11.2626236 49.7199260 -57.7645190
11.4519987 48.7248413 -57.9747222
11.1203510 52.5288917 -57.0103899
11.1699710 51.1268228 -57.4046224
11.4800986 51.7829470 -57.1336895
11.0244257 53.1766713 -56.8400621
11.7011778 47.1690409 -58.2978539
12.1827228 47.9731113 -57.9731762
11.4154592 50.5393259 -57.5037673
11.4873545 53.0673191 -56.7506850
11.5080820 53.7892655 -56.5168411
11.3840764 45.2752784 -58.8063449
11.4473784 46.0280813 -58.6276464
11.9463513 52.6122712 -56.7629188
11.8565196 51.0367900 -57.2475158
11.8253911 46.4892872 -58.4260076
12.0661603 50.2304323 -57.4145690
12.3358853 49.1986386 -57.6181710
11.8427984 53.2196723 -56.6074289
12.4258474 51.7116860 -56.8988211
12.5989364 50.8459024 -57.1009777
12.1139502 44.5444658 -58.7652214
12.4329589 53.3985496 -56.3882031
12.8455013 52.5668636 -56.5283373
12.3815462 45.6851870 -58.4593304
12.5877345 46.8249246 -58.1464842
13.0454423 48.4737195 -57.6127656
13.2759437 47.6129875 -57.7636212
12.7301514 43.8611843 -58.7287545
12.9466336 50.0639640 -57.2218560
13.1769478 44.6762331 -58.4503412
13.0135268 51.2910932 -56.8618104
13.2607408 51.8509597 -56.6275157
13.2863410 53.2303788 -56.1995581
13.2120373 53.9860427 -55.9840985
12.3923076 54.3482378 -56.0982823
13.4305637 49.2423587 -57.3052131
13.3078713 50.7594794 -56.9313914
13.1568424 46.1292751 -58.1554212
13.3309579 45.5016941 -58.2439452
13.9780575 50.1492247 -56.9066182
13.4961596 51.2976013 -56.7255579
13.6071369 46.7112176 -57.8882769
13.8520477 50.9407669 -56.7264222
14.0297925 48.3608991 -57.3538244
14.2373545 47.3393314 -57.5441681
13.7340929 52.5775328 -56.2704429
14.0389139 45.0953022 -58.1179075
13.9470957 44.3858840 -58.2853891
14.2068435 53.5909683 -55.8155775
14.0758445 51.6588613 -56.4495027
13.8771702 45.9188260 -57.9931624
14.4438939 50.8718491 -56.5705858
14.7404065 52.5398254 -55.9817217
14.2834922 49.2555797 -57.0507571
14.5334126 46.4397259 -57.6650240
14.2923556 43.9922586 -58.2466014
14.5914452 45.6386022 -57.8266308
14.6290390 50.3526889 -56.6595457
14.9926422 49.7975759 -56.6882379
14.5430258 44.5083268 -58.0691770
14.9579598 47.8581786 -57.1840517
15.0465062 47.0608510 -57.3491193
14.7571648 45.0386479 -57.8932241
14.8444185 43.9567901 -58.0597371
15.0484042 51.5407957 -56.1895594
15.0036635 48.7751514 -56.9426492
15.0840096 45.9666885 -57.5841591
15.3062372 46.4569889 -57.3968589
15.1306270 50.6450906 -56.4211980
15.0102396 43.4208475 -58.0824725
15.2403638 45.3886986 -57.6465353
15.3463176 44.5724688 -57.7599481
4.9927994 51.9761778 64.5227656
5.0149015 50.6638661 64.9796873
5.1921229 51.1039235 64.7803918
4.9992097 53.8432971 63.8198107
5.1868795 50.1526408 65.0973171
5.3856424 51.6269542 64.5396113
5.4538702 52.2852242 64.2761365
5.8467244 52.8920181 63.9340729
5.5978824 53.5232387 63.7694821
5.5781109 50.5800359 64.8509338
5.8387467 51.1206985 64.5910725
5.3374926 49.6005230 65.2252287
5.9332848 49.8925708 64.9714395
6.0296701 51.7059565 64.3245429
5.8215591 49.1368808 65.2296692
5.0869398 49.0605533 65.4472634
6.2482110 52.2860885 64.0441030
6.3041728 50.5428389 64.6544620
6.3216486 53.3828922 63.6073351
5.9549785 53.8411327 63.5454282
5.5168304 54.0855378 63.5814965
6.5319724 49.2939241 64.9878830
6.4072958 48.6187339 65.2186945
5.6450684 48.3319089 65.5018687
6.5425751 51.1628985 64.3696859
6.5086265 52.7779385 63.7797862
6.7697791 49.9245301 64.7230148
6.7088073 51.7571121 64.1042590
6.9397865 52.3046367 63.8275966
7.0699914 48.7928167 64.9837852
6.9864579 48.1783748 65.1806071
6.4079906 47.9405597 65.4052719
7.1837548 53.0290939 63.4737313
6.7858174 53.6451153 63.3655787
6.3720043 53.9792217 63.3667558
7.1502030 50.5652912 64.3961877
7.2109476 51.2808897 64.1260445
7.1893847 49.3713878 64.7774115
7.2707008 51.8042035 63.9150143
7.7581001 48.2971296 64.9207607
7.3850350 47.7125235 65.1915297
6.9163535 47.6627313 65.3400049
7.2497376 53.7550449 63.1758943
6.7986334 54.0815257 63.1948113
7.4942443 49.8623289 64.5295903
7.7086422 52.1774478 63.6339709
7.8006093 50.8886315 64.0835837
7.9014739 50.2775982 64.2659739
8.0840802 52.7537651 63.2891729
7.8621106 53.4384176 63.0973652
7.5551402 48.9648618 64.7930130
7.7696247 51.5013039 63.8706759
7.7058724 49.3677594 64.6253005
8.0529675 47.3214313 65.0947243
7.2359452 47.0640063 65.4007941
8.2294587 49.6493056 64.3710196
8.0532068 48.9770956 64.6365210
8.2371440 51.7017990 63.6442900
8.4498217 52.1470979 63.4029508
8.5082343 48.5059060 64.6323189
8.4789861 47.8857793 64.8149624
8.3795367 50.5426228 64.0215874
8.3281836 50.1375310 64.1801134
8.3600571 51.1487834 63.8088807
8.6211525 53.1524457 62.9559383
8.3447751 53.9434701 62.7405867
7.6815384 53.9940484 62.9426688
8.5661924 49.0642861 64.4490495
8.6662462 52.5764488 63.1647334
8.9467810 47.2503975 64.8391023
8.5777529 46.7099287 65.0956854
8.0177598 46.2926999 65.3664023
8.7853577 50.0659011 64.0539527
8.9830710 49.4218990 64.2017946
8.8689160 51.5286289 63.4975284
9.1101006 52.1404594 63.1818101
9.1492832 48.0408631 64.5590276
9.0599637 48.7637520 64.3799156
9.0689808 50.7154576 63.7287050
8.7332781 46.1805947 65.1813671
9.1535812 46.4866795 64.9722964
9.0545556 52.6858792 62.9907101
9.3097817 53.0628525 62.7569482
9.0145022 53.6017269 62.6475587
9.2831999 45.7368493 65.1152432
8.6419154 45.6647761 65.3353855
9.6310647 47.4515446 64.5640120
9.6121095 46.8434803 64.7320747
9.2205657 49.8154648 63.9962330
9.4909677 49.0606166 64.1480386
9.5177749 49.5260507 63.9906302
9.2588803 50.1543805 63.8663843
9.6682766 48.4942719 64.2580613
9.4042765 51.6278408 63.2762462
9.4066933 51.2038469 63.4352565
9.5400978 49.8940684 63.8601556
9.7735962 47.9382984 64.3821731
9.5551061 52.4940416 62.8919154
9.7481795 51.9167185 63.0453825
9.7837392 46.1901277 64.8393482
9.6560577 50.2621010 63.6894256
9.7877644 50.7886186 63.4532124
9.6051078 45.0076237 65.1849285
10.0643123 45.4700291 64.9180114
9.0029687 45.1566651 65.3444752
9.9242954 52.8840609 62.6140088
9.6785370 53.5546206 62.4391101
10.0207813 47.0823832 64.5327643
10.3052799 47.5591011 64.3019080
9.8263109 49.2590591 63.9710501
10.0250160 49.6960767 63.7539104
10.1579381 46.5999208 64.6103173
9.8797651 48.9048772 64.0640482
9.8678963 51.3425060 63.2204711
10.1708313 52.2699468 62.7607107
10.2631934 53.2178134 62.3658560
10.2836238 53.7145287 62.1656850
9.1119716 54.2909317 62.3429492
9.8222708 54.0973656 62.1756166
10.1232613 48.1566899 64.1992763
10.1992441 48.6114696 64.0390664
9.7292643 44.3908237 65.2908534
10.2971243 44.6386337 65.0381744
9.2466557 44.6601547 65.3841272
10.2202343 50.3000692 63.4732991
10.4433810 46.0063815 64.6566302
10.3593515 51.6177379 62.9395172
10.1270583 44.1083983 65.2258322
9.8201241 43.8429900 65.3899834
9.2680417 44.0979972 65.5071735
10.1976199 49.1076298 63.8867766
10.4142465 46.9638035 64.4263253
10.4650669 50.8836880 63.1730855
10.6909275 46.5202592 64.4409880
10.5465902 52.6962243 62.4652877
10.6147295 49.8486161 63.4871349
10.5840368 49.3497476 63.6668056
10.2258762 43.7274240 65.2823970
10.5524985 43.9528264 65.1151836
10.6665716 48.1923111 63.9915466
10.9732049 45.2481732 64.6500289
10.9086549 47.0650382 64.2184466
10.9139849 47.6361848 64.0592873
10.8755371 53.2358550 62.1432103
10.8787185 52.0059913 62.6061484
10.6392987 48.8229729 63.8140291
10.7386932 50.2992794 63.2835925
11.0195596 44.3048142 64.8635402
10.9973662 46.0180826 64.4548982
11.0052796 51.2783602 62.8294647
11.2372050 50.5357571 63.0114526
11.2331035 46.4767218 64.2528161
10.9582925 49.5162196 63.4719804
11.0317143 49.0905866 63.5832325
11.1568440 52.5594316 62.2990541
11.1284312 49.9086156 63.2729530
11.1233303 48.5803746 63.7061596
11.3416668 47.9834788 63.7982115
11.3428244 47.3834351 63.9703050
11.4637213 46.9230004 64.0502572
11.4583438 52.9229864 62.0537400
11.6011621 53.5792001 61.7518015
10.7992077 53.9498962 61.8922710
11.3849426 51.5832901 62.5785217
11.5141086 52.0311408 62.3667426
11.6495509 45.8472893 64.2535836
11.5983803 44.5710793 64.5873323
11.7136315 45.1418832 64.4044504
11.6001265 43.8949876 64.7509173
11.4044650 49.3654981 63.3487925
11.6890548 51.0338321 62.6647100
11.4443339 48.8897003 63.4873882
11.5868635 48.4914146 63.5531247
11.7857633 49.8625636 63.0332157
11.6907693 46.4945845 64.0754774
11.8160276 50.4602790 62.8187209
11.6591556 52.4607487 62.1548854
11.7819812 47.5058444 63.7655035
11.6395205 47.1868813 63.9124140
11.9569330 48.0878837 63.5262430
11.8294377 51.5629202 62.4220781
12.0484279 48.9033982 63.2405132
11.9643379 46.9344892 63.8520792
12.1168243 44.1174135 64.5043179
12.0620690 43.5902700 64.6524131
12.1628819 44.7292067 64.3370673
11.9937519 52.7770519 61.9153269
12.1670701 52.0107709 62.1344000
12.4060437 53.1932935 61.6120584
12.3841576 53.9665371 61.3255911
11.1902589 54.2788394 61.6262071
11.6958916 54.3028675 61.4387393
12.1503621 50.6544076 62.6246631
12.3857306 51.1523373 62.3612329
12.1823475 45.3208126 64.1827360
12.1412082 46.2960750 63.9513582
12.2635718 45.7934551 64.0318394
12.2074680 50.2064973 62.7553463
12.4347685 47.4533625 63.5188669
12.6309469 49.6348143 62.7771094
12.5904176 46.6812141 63.6699274
12.6847913 46.0306890 63.8054013
12.5536006 43.6400287 64.4539967
12.5307059 48.1773950 63.2696673
12.7195148 44.2884415 64.2325282
13.0195152 48.6949980 62.9168525
12.6437871 44.9439138 64.0992895
12.6451058 50.4126437 62.5171214
12.6663800 52.4929315 61.7775507
12.6588838 45.4758182 63.9586747
13.1151658 51.5959226 61.9341545
13.0947800 50.7908724 62.2195378
12.9333930 52.9343672 61.5211017
12.8559899 53.4073897 61.3719746
13.1822331 47.7367081 63.1351620
13.0244400 47.0413938 63.3958355
13.3933267 50.0314534 62.3548999
13.3063775 49.3234582 62.6120642
13.1634260 45.6116535 63.7229383
13.2876206 46.3313498 63.4807348
13.0136451 45.1594032 63.9002547
13.1232850 44.6964540 63.9742836
13.3815631 52.4456464 61.5387671
13.2611031 44.2187153 64.0404373
13.3577297 53.1322323 61.2968020
13.1992372 53.8089983 61.0967539
13.7168914 48.2214428 62.7794713
13.7127023 48.8606170 62.5931248
13.4768672 45.0747684 63.7366399
13.4752244 50.9651527 62.0193407
13.5492915 50.5868495 62.1174052
13.6220902 47.0018536 63.1624162
13.9187397 47.5593731 62.8869385
13.8701303 51.8155321 61.5803674
13.8775771 51.0954149 61.8225634
13.6221675 44.5008986 63.8255924
13.9953401 53.3977747 60.9624721
13.7113677 54.2644598 60.7349537
12.8943967 54.6785593 60.8682893
13.7700625 49.3922234 62.4090806
13.6646871 43.9368710 63.9478117
13.7878219 52.7992584 61.2640940
13.8558131 45.6038713 63.4425282
14.0428422 50.3897332 61.9907416
14.0993781 49.7196428 62.1795654
14.0692079 46.3507809 63.1548986
13.9466841 52.3535162 61.3658391
13.7368506 50.7585891 61.9904734
14.0797142 44.8842309 63.5405779
14.1240982 48.5038161 62.5342131
14.3339252 49.0258597 62.2952320
14.3394023 47.9704626 62.5991002
14.2664015 52.6703410 61.1313470
14.2464628 46.9908156 62.9091933
14.1226696 44.2070812 63.6947602
14.5945670 52.9968441 60.8857237
14.6855833 53.5002574 60.6627464
14.3712359 54.0085100 60.5892241
14.4358110 52.0429239 61.2865351
14.4679407 51.3678938 61.5035072
14.4015476 47.4336557 62.7244413
14.5137887 48.4408326 62.3936467
14.4318594 50.7832430 61.7120005
14.2899295 45.2995412 63.3451939
14.6211796 45.6793979 63.1059706
14.4517357 49.9379821 61.9750954
14.7953443 50.2124093 61.7508888
14.5976339 49.5449565 62.0365366
14.5847332 44.4803424 63.4351894
14.6427182 43.8730940 63.5644719
14.6014206 45.0338349 63.2854998
14.8152001 47.5478843 62.5190958
14.8807345 48.0871610 62.3410679
14.7794364 46.4997105 62.8192797
14.8508735 52.4388254 60.9847642
14.8866000 48.6192182 62.1875711
14.9593940 49.1299853 62.0103814
14.6848643 47.1006073 62.6972392
14.7169670 49.8303324 61.9037002
15.2208069 51.6235381 61.1144193
14.9710011 50.8604310 61.4722036
15.1837403 52.9817268 60.6549866
14.7798816 53.9027154 60.4741052
15.1941646 53.7153445 60.3779778
15.0159970 49.6344082 61.8390515
15.0412302 44.6892306 63.1902516
15.0187230 44.2005657 63.3250475
14.9893351 45.1758876 63.0856007
15.1789980 47.0329486 62.5055209
15.2097354 43.6931327 63.3728132
15.1369069 45.9747538 62.8102347
15.2435983 45.5032103 62.8910065
15.4020563 47.6651341 62.2368157
4.8898547 47.2118109 65.9939721
5.0423839 46.2155342 66.2010685
5.2087563 46.6959178 66.0398975
5.1867831 47.7063432 65.7889470
5.1908493 44.2531072 66.6248277
5.2523073 45.6249714 66.2886873
5.4032612 47.1561663 65.8733472
5.6388993 46.1152233 66.0694018
5.5594021 44.9231528 66.3726702
5.8090980 46.7282161 65.8734813
5.9319241 47.4289134 65.6651556
5.8600572 45.4698876 66.1673471
5.6639216 43.7161773 66.6241124
6.0362667 44.1738665 66.4199963
6.1635599 46.2443195 65.9005046
6.1437064 45.8175018 66.0099983
6.2302100 44.9013524 66.2017763
6.5187369 46.7164554 65.6870976
