# 3D Systems, Inc.
# New Model
-2.7695096 44.2480780 -56.4662144
-2.6925316 43.7457263 -56.6065572
-2.0444188 43.9786874 -56.3918129
-2.3497788 44.8126271 -56.1929047
-1.5357073 43.2736687 -56.5034449
-1.8067126 42.7740067 -56.7194186
-1.0311444 43.9685658 -56.1685376
-1.4969060 44.6768664 -56.0438335
-0.7404726 43.2067662 -56.3489497
-10.1045873 48.6892350 -55.7573363
-10.1395473 49.2422320 -55.5005558
-10.2599598 50.9788543 -54.6613000
-10.5090477 51.5969619 -54.3619618
-9.9829724 50.2960049 -54.9850874
-10.1172021 52.0581231 -54.1137792
-10.3263892 52.5876209 -53.8384281
-9.9545522 48.0511077 -56.0390167
-9.7234594 49.6522039 -55.2822761
-9.7176852 51.5508167 -54.3575399
-9.4662672 50.8289263 -54.7021963
-9.5470417 49.0390919 -55.5591621
-9.4356369 48.4235436 -55.8316745
-9.1976644 50.1323119 -55.0240502
-9.6420348 52.0218536 -54.1163459
-8.9624925 51.3280593 -54.4358790
-9.0811849 52.0305634 -54.0847629
-9.6629616 52.4401143 -53.8939610
-9.0126656 49.4429208 -55.3372465
-8.6808177 50.6810211 -54.7359549
-8.8714296 48.7732440 -55.6305647
-8.3225742 49.8848148 -55.0873168
-8.4793214 51.6770072 -54.2397425
-8.9719677 52.8932735 -53.6155216
-8.1450930 52.2883944 -53.9047420
-8.3528515 51.1892587 -54.4757657
-8.4171705 49.1630323 -55.4216877
-9.8583587 53.0384295 -53.5697155
-7.7823000 50.7111773 -54.6697602
-8.0200406 48.4546870 -55.6962714
-7.8595756 49.2478833 -55.3413406
-7.3048859 49.7996509 -55.0550036
-7.8555169 51.5375771 -54.2751662
-7.9612648 53.2088242 -53.3955842
-7.3667727 52.0093292 -54.0054254
-7.3116231 52.6457131 -53.6693446
-9.4302818 53.5820276 -53.2388687
-8.6933449 53.6507666 -53.1760678
-7.2302576 48.9254966 -55.4275326
-7.0598274 48.1089018 -55.7479411
-6.9442689 50.5316518 -54.6967387
-6.9985492 51.3355695 -54.3152615
-6.6512232 49.2996424 -55.2181900
-6.3259508 49.9774218 -54.8956916
-6.4811930 48.6301221 -55.4795377
-6.2532672 47.8868000 -55.7523519
-6.5240571 52.2308983 -53.8241006
-6.2896349 50.8236997 -54.5055568
-6.2107542 51.4938608 -54.1712828
-5.9060156 49.1567813 -55.2038476
-5.6364951 50.4376739 -54.6236821
-5.5264053 49.7754291 -54.9070798
-6.6953888 52.9275611 -53.4766316
-5.6356690 51.9200191 -53.8906530
-5.7242955 52.7366735 -53.4752943
-6.2739486 52.7761541 -53.5206646
-7.2014248 53.2009751 -53.3634648
-5.7863211 48.3976528 -55.4977991
-5.5999532 51.1543155 -54.2743579
-5.5303155 47.7489159 -55.7197668
-5.2707251 49.2650047 -55.0875068
-5.3007365 48.7442426 -55.3006865
-5.1048803 50.1473434 -54.6936542
-4.9547912 50.7194251 -54.4002689
-4.9093259 49.6426187 -54.8830032
-5.2578780 48.2226647 -55.5013828
-4.8641060 51.5133366 -53.9922640
-4.8097693 47.8040092 -55.5970147
-4.9044266 52.3869060 -53.5509028
-4.4486159 47.2035073 -55.7704605
-4.7214013 48.9968471 -55.1154241
-4.8829759 48.4279580 -55.3678125
-4.4984780 50.1245297 -54.6029322
-4.0267128 50.8973747 -54.1512035
-4.0732012 51.9802831 -53.6302812
-5.0212629 53.1281345 -53.1723201
-4.1341512 53.0395620 -53.0896336
-6.1848671 53.2130413 -53.2719716
-5.5784187 53.5104275 -53.0332588
-4.3549370 49.5128706 -54.8435189
-4.3548089 48.3805835 -55.2998520
-4.0705875 47.7241687 -55.5059277
-4.0139896 48.9978530 -54.9913049
-3.6645671 49.7781187 -54.5924790
-3.8143294 46.9841510 -55.7429157
-3.2155288 51.5569597 -53.6892191
-2.9334812 50.5644791 -54.0941581
-3.3056256 52.4661504 -53.2577410
-3.6761805 48.3463183 -55.1907644
-3.3637362 47.6566404 -55.4000847
-3.3557562 48.9678495 -54.8758768
-2.5099984 49.3477583 -54.5393676
-3.4523357 46.4657620 -55.8675341
-3.0790546 46.9445474 -55.6133799
-2.8782994 46.1275876 -55.8676086
-2.9477887 48.3685248 -55.0369769
-2.5923348 52.0865731 -53.3212312
-2.3618441 51.3185635 -53.6395200
-3.1710176 53.3050299 -52.8037660
-2.6433966 52.8099947 -52.9703684
-4.8023844 53.9738275 -52.6664890
-3.6806958 54.0290698 -52.4861626
-1.8298618 50.4588224 -53.9134517
-2.2978527 50.4249968 -54.0244803
-2.6354529 47.6061627 -55.2720129
-2.8823710 45.5893092 -56.0575426
-2.4549630 45.5401391 -55.9772253
-2.3577486 46.8713604 -55.4879531
-1.9415152 46.1758785 -55.6430519
-2.1827905 48.3039059 -54.9035594
-1.7359455 48.8307253 -54.5950942
-1.4514797 49.4961701 -54.2497933
-1.9875339 51.8642142 -53.3099547
-1.6019013 51.3506606 -53.4667186
-2.0262795 52.4785593 -53.0186370
-1.7452752 45.3924797 -55.8647811
-1.9079016 47.5241058 -55.1479086
-1.7160957 46.8885787 -55.3411506
-1.2460898 45.8946936 -55.5807650
-1.1853280 46.5563275 -55.3376488
-1.3758623 48.1595546 -54.7845364
-0.8435546 50.1925983 -53.8057536
-1.0969089 50.9115048 -53.5510220
-1.1869255 47.3399460 -55.0549366
-1.1606616 48.8418974 -54.4607304
-0.6215600 49.2864251 -54.1419052
-0.9659328 45.2807657 -55.7207093
-1.3412071 52.0677082 -53.0726537
-0.9770510 51.4590703 -53.2759465
-0.8255205 44.6454063 -55.8992103
-0.8422946 47.8549339 -54.7809154
-0.6102610 48.4264269 -54.4960685
-0.2627752 43.6781906 -56.0888723
-0.2969328 44.3298817 -55.8789633
-0.2187189 51.0776006 -53.2642603
0.1707208 49.9035232 -53.6803715
-0.6781236 46.9502546 -55.0764687
-0.5941256 47.4627428 -54.8701994
-1.4513305 52.8638996 -52.7087301
-2.1235771 53.1605035 -52.6947528
-0.7117246 52.5648668 -52.6931733
-0.6123773 51.8717989 -52.9985577
-9.3614031 51.5948832 66.7323396
-9.6404226 50.9688891 67.0898110
-8.9457948 52.3085520 66.3071871
-9.5155789 53.1142689 65.8658072
-9.9436240 50.4427850 67.3810393
-8.8923695 50.9611405 67.0370609
-9.2029581 50.4025780 67.3409551
-8.3824871 51.4967553 66.7163953
-8.5390294 50.4364744 67.2688782
-8.2563413 50.8233197 67.0537576
-9.5876418 49.8117507 67.6532686
-8.6404141 49.7614704 67.5962418
-7.9699699 52.2134267 66.3044378
-7.7629811 50.9837195 66.9273436
-7.5028930 51.5387990 66.6254759
-8.3381319 53.0621745 65.8363029
-7.7254288 50.2102599 67.2974512
-6.9592642 50.8236252 66.9177920
-7.1382746 52.1218367 66.2911832
-6.8058237 51.5358485 66.5556788
-7.5015496 52.6830442 66.0135821
-6.8190750 50.0649102 67.2641546
-7.0298216 49.4627915 67.5723851
-7.8241322 49.3003763 67.7324012
-6.0680872 51.1680953 66.6298941
-6.0309158 50.2308533 67.0674592
-6.3541587 51.9689135 66.2768558
-6.6811014 52.6940189 65.9283772
-5.4753255 50.6451204 66.7803138
-5.4867249 51.7793857 66.2348643
-5.3454121 51.1262417 66.5311366
-6.3522141 49.5946892 67.4214289
-4.9469797 49.9694869 66.9933781
-5.5753128 49.3477583 67.4078912
-5.9303655 52.3971319 65.9912303
-5.2217930 52.4553508 65.8335686
-4.7178301 51.2676276 66.3432330
-4.7613452 51.9156493 66.0342649
-5.8924733 52.9508442 65.6728968
-7.3560514 53.2497652 65.6659380
-6.5581412 53.3409566 65.5359328
-4.9667000 50.7173613 66.6517988
-4.3383045 50.5569763 66.5971562
-3.8531481 49.7787781 66.8502524
-4.3539046 49.1588153 67.2489852
-4.9555912 49.3306033 67.2988743
-4.1495007 51.6152196 66.0637245
-3.9958721 51.0537140 66.2990808
-4.2452598 52.3288958 65.7112002
-5.0064670 53.1931147 65.3589070
-3.5615563 50.5409278 66.4407909
-3.6666642 49.0897931 67.1259314
-3.1265141 49.9466583 66.6150525
-2.9835617 49.2131785 66.9135675
-4.9259453 48.8533936 67.5162300
-3.8452512 48.7100929 67.3420653
-4.2607868 48.3970232 67.5790831
-6.3013420 48.8683432 67.7479059
-5.4881745 48.5867187 67.7492842
-3.5505302 51.7104156 65.8926740
-3.6790557 51.2952991 66.1223829
-3.3822351 52.2405505 65.5845702
-3.6706401 53.0120656 65.2071685
-3.5899244 50.9901084 66.2446544
-3.1770668 51.0487072 66.1268830
-2.8979147 50.4117161 66.3559958
-2.7279863 51.6388230 65.7477975
-2.3548375 49.8063937 66.5097684
-3.2939638 48.6104526 67.2578141
-2.1033953 48.9749834 66.8220967
-2.4927536 48.3106598 67.2000796
-2.2976396 50.7225096 66.0839528
-2.7398707 52.4373092 65.3390363
-1.9639276 51.3104051 65.7360479
-2.0151543 51.9438423 65.4343590
-1.5469072 50.0583276 66.2203357
-1.5452288 49.3340120 66.5418133
-1.4377161 50.7741496 65.8672675
-1.7631367 48.4284498 66.9797808
-1.4840071 48.7735346 66.7702779
-3.1315389 48.0527990 67.4683452
-1.6862886 47.8476435 67.2038868
-2.7006953 47.7877967 67.4782023
-2.2783219 47.5856513 67.4591511
-3.6417453 48.3082198 67.4771294
-1.3365212 51.4579527 65.5150563
-2.0539979 52.5566936 65.1210696
-1.2505511 52.2402190 65.0979578
-2.5888577 53.1868972 64.8813099
-0.8265349 49.5050512 66.3053617
-0.8230394 50.2114035 65.9848675
-0.9606688 48.8964021 66.5991828
-0.6451490 50.8828349 65.6231046
-1.0481165 48.2435934 66.8886378
-1.6539817 52.9629067 64.8037270
-0.6742198 51.5980124 65.2803630
-1.0594624 52.8093539 64.7526234
-0.5397011 52.0650335 65.0113001
-0.6138971 52.5300056 64.7908300
-10.0295106 43.6460190 70.1469406
-9.8391566 44.8318794 69.6988031
-9.7410725 44.2426503 69.9049309
-8.9463713 47.4351980 68.6184019
-9.9065546 46.0065939 69.2657977
-9.0804277 46.2023951 69.1117793
-9.5429989 46.6370434 68.9847618
-9.4839251 45.4077981 69.4508553
-9.1747744 49.1030477 67.9417774
-8.7079005 48.4227724 68.1969374
-9.1723828 43.6457433 70.0615942
-8.9921625 44.5777141 69.7068870
-8.1521552 46.5566888 68.8866600
-8.1546530 47.9566604 68.3417991
-7.7886689 47.3072752 68.5623586
-8.7851454 45.3747660 69.3929195
-8.1988014 45.7334258 69.2003593
-8.4554153 49.0378775 67.9103732
-7.9478566 48.5800393 68.0635348
-8.5409777 43.8765623 69.9120834
-8.1743747 44.9287184 69.4918334
-8.2114050 44.2716293 69.7337314
-7.6005319 46.0160784 69.0327212
-7.3102377 46.5863273 68.7881410
-7.4109999 45.2674963 69.2829713
-7.4003451 47.9981191 68.2503134
-6.7894068 47.2492129 68.4756488
-7.4573881 44.3110466 69.6303695
-7.1750898 48.7263277 67.9201707
-6.9435854 45.8847657 69.0044463
-6.8460698 44.6977764 69.4172904
-6.6717253 45.2410318 69.2009404
-6.6095642 44.0134592 69.6278289
-6.6084769 46.4320481 68.7625483
-6.5803616 48.1117181 68.1121722
-5.9295120 47.5441329 68.2530180
-5.9399540 46.6728471 68.5815811
-6.0766274 45.6955880 68.9574182
-6.0882820 44.6246564 69.3395808
-5.9672035 43.8256077 69.6050152
-5.9178136 48.2147932 67.9838434
-5.1131863 44.9119583 69.0923631
-5.3360164 43.9504609 69.4646612
-5.1765963 46.0158736 68.7073693
-5.0666728 47.0146686 68.3175102
-5.2967551 47.9009114 68.0108666
-4.8934296 48.2899174 67.7683949
-4.4135163 43.8785069 69.3374425
-4.4234409 45.4593375 68.7836483
-4.2523579 44.7000451 69.0241158
-4.4192583 46.2656468 68.4885085
-4.4710096 47.6662181 67.9445267
-4.2084935 46.9183549 68.1978017
-3.6030854 44.1717319 69.0852031
-3.8671012 47.2844020 67.9767430
-3.6690261 47.7751866 67.7183792
-3.8637328 45.7604565 68.5676262
-3.6715553 45.0449176 68.7875450
-3.7275373 46.3399254 68.3211535
-3.6555601 46.8562581 68.1047291
-3.0284685 45.6418321 68.4242621
-3.1359636 46.5311706 68.1084916
-2.8045264 44.4956161 68.7981322
-3.3039062 47.1590497 67.8949878
-2.9855359 47.5311577 67.6589981
-2.5779854 46.2076329 68.0992231
-2.1772396 45.0183377 68.4571117
-2.2063686 45.6886999 68.2097971
-2.4833137 46.9426513 67.7788183
-1.8834090 44.2275889 68.6786398
-2.6131901 47.4619232 67.5962940
-2.0078453 46.2116487 67.9544359
-1.6900542 47.1650884 67.4878433
-1.7324325 46.6103591 67.7245632
-1.4010037 43.4055217 68.8523427
-1.7487751 45.3063920 68.2419613
-1.3494096 44.7285213 68.3555678
-1.6655527 45.7246043 68.0583790
-1.2608991 44.0627895 68.5825795
-1.3614070 46.0790843 67.8403154
-1.1093648 46.6427431 67.5506517
-0.8427930 47.3559834 67.1952963
-0.9021796 42.6874422 68.9673126
-0.7865122 43.7321290 68.5781613
-0.6311519 43.1873016 68.7279999
-1.3228188 45.3586988 68.1113750
-0.8548891 44.2158915 68.4178025
-0.8323637 45.0732782 68.0885687
-0.6936693 44.5566885 68.2465211
-1.3355386 45.6948020 67.9845810
-1.1308161 42.2532260 69.1719800
-10.4748588 56.3744046 -51.4069013
-9.9886246 56.8830222 -51.0512628
-10.0708297 58.8307045 -49.6138744
-9.8126316 58.0336861 -50.2216853
-10.1243500 59.6056283 -49.0097478
-10.4520181 61.1931421 -47.7010123
-10.2775106 61.7044941 -47.2798720
-10.9955668 53.1093515 -53.5722040
-10.5418405 53.0993305 -53.5606630
-10.4758618 55.8889993 -51.7471991
-9.7759189 61.2216294 -47.7278605
-9.2575811 59.9683747 -48.7725399
-9.1777220 60.7264563 -48.1739528
-9.8597845 57.4555993 -50.6452210
-10.2637708 62.4027513 -46.6671847
-9.8583866 56.0858510 -51.6119227
-9.1376090 57.3639832 -50.7186726
-9.0681557 56.4983487 -51.3241030
-9.4030853 61.8843995 -47.1909642
-8.8290898 54.6768866 -52.5412261
-9.0317447 55.6585863 -51.8985614
-9.4267260 55.3554706 -52.1035194
-9.0728905 54.0513881 -52.9477336
-9.3401847 62.6657233 -46.5156846
-10.0061232 63.1276518 -46.0394621
-9.3294056 58.5892871 -49.8291329
-9.3005411 59.2029542 -49.3653193
-8.8680508 58.1156351 -50.1869656
-9.0821125 61.3017641 -47.7089733
-8.6317975 61.6168939 -47.4707894
-8.4524248 62.2703470 -46.9231941
-8.2693873 60.2920353 -48.5640317
-8.4305601 59.4606809 -49.1984524
-8.4320102 61.0563606 -47.9469858
-8.1266258 55.3734712 -52.0725884
-8.6655421 54.1090518 -52.9019348
-8.0914488 54.0515594 -52.9111698
-7.7895285 54.7263771 -52.4804220
-8.2116798 56.1002232 -51.5867509
-8.2033677 56.8824448 -51.0520153
-8.1908014 57.6588139 -50.5151525
-8.6164335 58.7507598 -49.7272015
-7.7980934 61.5688451 -47.5509539
-8.6443229 63.0044341 -46.2770127
-7.4881017 62.2648336 -46.9810888
-7.8631863 62.8802553 -46.4356951
-9.2635779 63.2957965 -45.9650345
-8.1488965 58.2815409 -50.0755608
-7.5282026 59.6983060 -49.0364358
-7.6560988 60.8299971 -48.1624082
-7.4486234 60.2998137 -48.5852808
-7.6515577 58.8420406 -49.6679507
-7.2664837 56.3931651 -51.3640046
-7.5981691 55.7819121 -51.7861061
-7.3714862 57.2648719 -50.7762767
-7.3539051 53.7195541 -53.0751571
-7.3403926 55.2803911 -52.1065444
-7.4434639 58.0295250 -50.2494909
-7.3985741 54.2599447 -52.7548119
-7.0031816 54.7051504 -52.4537414
-6.9963364 61.1534305 -47.9164682
-6.9501204 61.7869906 -47.4019870
-7.0284507 60.6093705 -48.3503714
-6.6162990 59.2218712 -49.3807085
-6.8237316 58.4396347 -49.9481261
-6.7977593 60.0692034 -48.7609059
-6.6411314 56.9362529 -50.9771332
-7.0676147 55.7533503 -51.7828017
-6.6447905 55.9753925 -51.6152717
-6.4300415 56.4350747 -51.3022430
-6.5112067 57.6763526 -50.4697487
-6.5116640 55.3286076 -52.0242155
-6.8040621 54.0928990 -52.8171025
-6.7250561 53.4983464 -53.1610437
-6.2393197 54.5377582 -52.4969213
-6.2982710 61.4294708 -47.7010533
-6.2768720 60.6949963 -48.2765697
-6.8244319 62.2859150 -46.9894223
-6.3118753 62.0149001 -47.2245701
-7.0446478 62.7909452 -46.5521142
-5.6481506 56.9029301 -50.9494282
-5.9265564 58.4205166 -49.9323644
-5.7621845 57.7271804 -50.4057184
-5.9301797 59.8898791 -48.8756225
-5.6992285 59.1878146 -49.3815020
-6.1793737 53.8380593 -52.9130436
-5.9715281 55.9598729 -51.5838265
-5.3833462 55.0787747 -52.0814545
-5.6511783 61.7504306 -47.4401414
-5.6242575 61.1721873 -47.8968918
-6.3303676 62.5674203 -46.7650965
-5.8226571 62.2644275 -47.0232517
-5.6246771 54.1861095 -52.6468232
-4.9824328 57.9018332 -50.2397902
-5.2554202 56.0279824 -51.4892861
-4.8216237 56.4259551 -51.2070879
-4.5077540 57.0150428 -50.8001223
-5.2997614 60.5397001 -48.3698137
-5.1249661 58.7799698 -49.6444367
-4.9208826 59.6229769 -49.0319245
-5.2497676 62.1715896 -47.0948331
-4.6114135 61.4422746 -47.6554707
-5.5718902 62.8128573 -46.5727895
-6.4070299 63.2279068 -46.2024845
-4.4843792 55.7615608 -51.5862107
-4.2449036 54.8485965 -52.0958565
-4.4539673 60.4116991 -48.4341197
-4.1112760 58.7610826 -49.5962240
-3.8447829 59.7845055 -48.8647372
-3.8168458 57.6932169 -50.2947196
-4.4073798 57.8496680 -50.2326600
-4.2348830 56.4069599 -51.1699058
-3.5580341 56.7391478 -50.8878715
-4.5931060 62.5826940 -46.7631780
-3.5998048 60.6638715 -48.2100695
-3.2634519 61.5098588 -47.5662462
-3.9313398 61.2849444 -47.7539599
-3.7740967 62.1698685 -47.0780134
-3.6624742 55.4481186 -51.6806319
-3.8133420 56.0735948 -51.3297133
-3.4730954 54.7881797 -52.0352572
-3.0285500 58.3240874 -49.8185344
-3.0618461 59.2101291 -49.2258817
-2.7094434 57.4019141 -50.3819995
-2.9199137 60.0299686 -48.6436225
-2.9429791 54.3971919 -52.1777980
-2.9972168 53.8384393 -52.4924994
-2.5046878 60.8000197 -48.0640419
-2.7715943 62.3670220 -46.9035059
-2.3192633 61.6112687 -47.4557765
-3.6312861 62.9423633 -46.4803092
-4.9678860 63.2536188 -46.2229922
-4.3444829 63.2779896 -46.2128818
-3.1284238 55.9921749 -51.2940884
-2.8295231 55.2023463 -51.7111756
-2.6885779 56.5621927 -50.8977063
-2.7971214 53.5899252 -52.5959954
-2.6263951 53.3473678 -52.6929460
-2.2760194 59.5690534 -48.9333309
-2.1746214 58.7827787 -49.4536459
-2.2226693 60.1464733 -48.5257469
-2.2785349 58.0816977 -49.9166884
-2.3831648 53.8607761 -52.3774475
-2.2786779 54.6458587 -51.9381873
-2.2055116 55.8984652 -51.2257032
-1.8267070 56.7577370 -50.6750681
-1.7448867 57.6307699 -50.1423068
-2.0958548 55.2161075 -51.5973568
-1.5615136 61.1961819 -47.7228612
-1.6397078 60.4382455 -48.2782274
-1.4947775 62.1813387 -46.9938852
-2.0586650 63.0435124 -46.3682823
-2.8600632 63.1053746 -46.3465676
-1.4917015 59.3460463 -49.0279645
-1.7098287 58.2546629 -49.7541167
-1.3397684 58.6803555 -49.4482331
-1.7613572 59.8916188 -48.6768819
-1.6817049 54.2981513 -52.0224087
-1.5929460 53.5876900 -52.3729362
-1.7189659 54.8783951 -51.7223179
-1.4292873 55.4328077 -51.3729751
-1.4168217 56.0921691 -51.0050505
-0.9329523 57.1814887 -50.3150001
-1.0610307 56.5024540 -50.7260971
-0.9815507 58.0839105 -49.7768596
-0.8197056 59.0143166 -49.1773114
-1.1608762 59.9556826 -48.5864207
-0.8657483 59.5206954 -48.8550924
-0.8172961 58.5864037 -49.4492911
-1.0048386 54.0175773 -52.0376265
-1.0919557 54.7772385 -51.6646653
-0.8945322 53.3082336 -52.3716770
-0.6160073 60.6389679 -48.0528027
-0.7920128 61.5091212 -47.4449322
-0.5445750 55.8413751 -51.0076061
-0.9088790 55.2898310 -51.3658673
-0.1810041 57.6678254 -49.9161929
-0.1009464 58.5571826 -49.3626595
-0.5626788 56.6000417 -50.6036617
-0.1376472 56.9738597 -50.3228121
-1.2612301 62.9931614 -46.3764369
-0.7756690 62.6340136 -46.6241650
-0.4230968 62.1000342 -46.9914898
-9.8216133 58.6160980 62.0560758
-9.0866899 53.9627820 65.3156042
-9.1042863 55.3273186 64.4081831
-9.1849575 54.6383783 64.8823082
-9.9647911 59.3695715 61.4709742
-9.4437413 60.8039238 60.2663159
-9.0292394 61.5103394 59.6577935
-9.3981633 62.0789975 59.1766834
-9.7052203 60.0203238 60.9300472
-9.7091645 56.8175130 63.4111464
-9.6614640 57.3852733 62.9908219
-9.2668645 57.8927249 62.5772104
-8.8838395 56.2786534 63.7261197
-8.9022573 59.3258590 61.4411607
-8.7590739 60.2237843 60.7168414
-8.8341432 57.1701676 63.0792528
-8.4298104 60.9357245 60.1165891
-8.8620819 58.4855266 62.0947368
-9.1412170 62.7075732 58.6243048
-8.4577557 62.1648803 59.0850636
-9.8152207 63.1948411 58.1889525
-8.1950100 57.8951649 62.4839030
-8.4309522 54.5653403 64.8762137
-7.9533691 53.8475774 65.3239563
-8.3310483 55.7452962 64.0531555
-7.8171194 55.1991910 64.3831044
-8.0952989 58.7065294 61.8630573
-8.1658652 59.8445311 60.9878004
-7.8124437 59.3450107 61.3504797
-8.0739250 56.6856526 63.3544251
-8.0767125 56.1470985 63.7413785
-8.0044670 57.2557971 62.9361272
-7.8868531 60.4126453 60.5153143
-8.1604254 61.5329705 59.6093498
-7.2870585 61.1287355 59.8924384
-7.5971582 61.9210005 59.2593886
-8.1950892 62.9231483 58.4223419
-7.6943557 62.4730363 58.7989017
-8.9102136 63.4123683 57.9997934
-7.4189669 58.3152287 62.0982982
-7.6124407 57.5086027 62.7134666
-7.4369335 57.8390919 62.4534190
-7.3602032 58.8789508 61.6685301
-7.4033518 54.4269122 64.8876354
-7.0565320 53.8105033 65.2850568
-7.4509652 59.9170402 60.8776994
-6.8813525 59.4012402 61.2240024
-7.7487249 55.7876416 63.9622286
-6.4915963 54.9533591 64.4031689
-7.1732881 55.6083843 64.0229806
-7.2960691 57.0247844 63.0281642
-7.3358258 56.2441349 63.5908395
-7.2131762 60.4257360 60.4575649
-6.6201114 54.2034060 64.9645776
-6.8379319 61.8789792 59.2502356
-6.7023169 60.5953410 60.2795444
-6.4491951 61.4712723 59.5559701
-6.3074818 60.9811582 59.9375591
-7.1578622 62.3405837 58.8867739
-7.1187951 57.5335547 62.6426563
-6.8292916 57.9476655 62.3064488
-6.5782703 58.6317144 61.7725030
-6.5029757 56.6009544 63.2384047
-6.4642332 55.8629520 63.7567043
-6.7316247 60.0750111 60.6918298
-6.4094733 57.3524535 62.6891926
-6.5950295 62.4156408 58.7892346
-5.9577250 61.9915277 59.0903684
-7.0834467 63.0077273 58.3148934
-6.3849567 53.7818186 65.2309656
-6.0033249 58.0185875 62.1571355
-6.0574454 59.2191778 61.2749420
-5.4821731 58.6476661 61.6315342
-6.1638798 59.7464144 60.8856604
-5.7116318 54.0512390 64.9290308
-5.5657565 55.5227511 63.8787895
-5.1446347 54.7666885 64.3383265
-5.9706969 60.3661649 60.3885092
-5.9204111 53.4778573 65.3571412
-5.8668144 61.3738075 59.5836490
-5.5759251 60.9512255 59.8917119
-5.1759933 59.6719608 60.8289912
-5.4049925 58.0614693 62.0540157
-5.3087496 57.4738309 62.4645613
-4.3289657 58.8256568 61.3592379
-4.7963392 58.7835722 61.4471361
-4.8224749 58.1072979 61.9467199
-5.7958062 56.8732731 62.9566014
-5.7059010 56.2536195 63.3833930
-5.1409407 60.5439022 60.1625554
-5.9605367 62.8535375 58.3847985
-5.0537535 61.4733659 59.4240017
-4.9675037 62.4699630 58.6162210
-4.3546986 53.9560765 64.7533089
-4.7163675 55.3322323 63.8861954
-4.8534372 55.9770949 63.4609684
-4.0111318 54.7917411 64.1372949
-5.1248246 60.9696731 59.8320700
-5.0447867 56.6888154 62.9870221
-4.2692511 60.3945069 60.1777434
-3.9974134 59.6335307 60.7218556
-4.7365623 60.9109774 59.8349310
-4.5201355 57.0962690 62.6275316
-4.4609248 57.5959012 62.2665435
-4.0780907 56.4617589 63.0074665
-3.9952174 55.6115694 63.5797754
-3.5396952 54.1936308 64.4552335
-3.3791328 53.6725372 64.7554472
-4.1147633 61.9456917 58.9572489
-4.1020368 61.1742102 59.5635027
-5.1854588 63.2273927 58.0231808
-3.9921491 62.7165437 58.3250672
-4.5406539 63.0774796 58.0871925
-6.2583880 63.4956285 57.8717701
-5.7271193 63.3552969 57.9616949
-3.9462536 58.0404401 61.8825667
-3.4631712 58.5365482 61.4630952
-3.4163455 59.1422543 61.0181987
-3.1080081 55.1503412 63.7393445
-3.2113336 54.5490459 64.1582236
-3.2259983 60.7309788 59.7939976
-3.5138198 60.0961931 60.3185408
-3.2622337 61.5920573 59.1301806
-3.3749095 62.2484647 58.6272553
-3.7041467 57.2625957 62.3945408
-3.1945142 55.9686162 63.2037595
-3.2241740 56.6341691 62.7552494
-2.8954970 57.9136722 61.8153289
-2.7421513 54.0236793 64.4062459
-2.7977244 57.0978820 62.3661764
-3.2851528 59.6699230 60.6102757
-2.8058279 60.0484610 60.2584556
-2.7017249 59.4245791 60.7094169
-2.3972841 61.2578019 59.2712834
-2.2574055 60.5472848 59.7996078
-2.6562251 54.6057932 64.0149340
-2.4142317 55.5815548 63.3261204
-2.2701754 54.9691282 63.7024418
-2.3412385 56.3852005 62.7729073
-2.7319717 58.7562360 61.1990094
-2.3874869 62.1925071 58.5372560
-3.1449040 62.7933815 58.1641756
-3.6906800 63.2681623 57.8479059
-4.1573611 63.2069930 57.9458363
-1.8196494 57.2959706 62.0635487
-1.8030489 58.4018603 61.3001958
-2.0933626 57.8790307 61.7074631
-1.8715831 53.6397025 64.4570515
-1.7000779 55.7565242 63.0723312
-1.2333032 56.3776158 62.5695884
-1.8697587 55.2828535 63.4191334
-1.9512518 54.3592609 64.0303865
-1.8631170 59.8123930 60.2923855
-2.1153344 59.1074862 60.8504005
-1.6233572 54.8633672 63.6388361
-1.7147932 60.9438568 59.4146177
-1.5500088 60.4764558 59.7448647
-1.5526728 61.5307316 58.9311905
-2.4838720 62.9531220 57.9502024
-1.1862678 62.2453317 58.3167598
-1.7277863 62.9086271 57.8771271
-2.9680503 63.3757338 57.6759130
-0.8805195 57.8457117 61.5270361
-0.7784997 57.0488200 62.0432310
-1.4779936 59.1307543 60.7320257
-1.0909836 60.1751842 59.8980188
-0.9113165 59.5658533 60.3205189
-0.6937075 58.7415770 60.8730651
-1.2161151 53.9846793 64.0992820
-1.2844570 54.4797592 63.8085455
-1.0660213 53.3392541 64.4525439
-1.3433866 55.2692898 63.3169487
-1.0005144 55.6701347 62.9816353
-0.5189663 56.5158986 62.3374358
-0.4740406 55.9955388 62.6541078
-1.0271944 54.8526831 63.5113791
-0.8290099 60.8896166 59.3075901
-0.8119588 61.6438538 58.7265566
-9.7350050 63.6365190 -45.6028171
-8.7454701 63.4741038 -45.8556525
-8.1919553 63.4301677 -45.9371433
-9.0956129 63.8542846 -45.4724915
-7.3527405 63.5115206 -45.9137484
-8.0138985 63.9229044 -45.5092937
-6.5068626 64.0628263 -45.4790555
-7.4295071 64.2509833 -45.2516004
-8.5195964 63.7751222 -45.6048809
-5.6297970 63.6113137 -45.9082052
-4.6965410 63.9748797 -45.6389524
-5.6206421 64.3233955 -45.3088023
-3.8308995 63.6292547 -45.9418893
-3.7717237 64.2425865 -45.4468057
-5.0567426 64.6572262 -45.0539589
-4.3373974 64.7831708 -44.9751131
-3.2426533 63.4539351 -46.0840315
-2.5952409 63.7129396 -45.8673164
-3.2930642 63.8701543 -45.7559042
-1.3706479 63.8976023 -45.6774905
-2.3190707 64.3092096 -45.3839451
-3.0200307 64.2996356 -45.4057828
-0.6102643 63.2122830 -46.1781584
-1.9152849 64.8610368 -44.9179560
-0.7316679 64.9410114 -44.8199473
-1.0606438 64.8654103 -44.8901244
-0.3822669 63.7564734 -45.7482710
-0.4655446 64.2501563 -45.3659743
-10.5864527 68.9256787 -39.8886837
-10.4757305 68.5744658 -40.3236113
-10.1842862 70.1576844 -38.5089442
-9.9273641 69.5143119 -39.3443517
-10.3041502 65.7560602 -43.4215255
-10.3927394 70.4956353 -38.0374528
-10.3473403 65.0662854 -44.1244319
-10.3934752 64.4385070 -44.7480157
-9.9730454 67.8501874 -41.2382744
-9.7965114 71.6139898 -36.7463194
-10.0996466 70.6995428 -37.8566347
-9.7382423 71.0171312 -37.5440717
-9.7742099 72.1177086 -36.0770039
-9.8650791 72.5165680 -35.5024785
-9.7592538 64.1502142 -45.1126024
-9.6669691 68.7278733 -40.3208621
-9.6894298 64.7653416 -44.5199199
-9.5530786 65.4439554 -43.8595489
-9.4107278 66.5809736 -42.7074879
-9.9420538 66.1775395 -43.0442579
-9.2673507 67.4555674 -41.8083034
-9.6515464 65.9881309 -43.2886332
-10.0960024 70.4907700 -38.1210409
-9.0498449 70.2847466 -38.6363342
-9.7086718 70.6004724 -38.0814448
-8.9774923 69.5164427 -39.5726599
-9.1752559 71.3569298 -37.2582637
-8.9625726 72.3413378 -36.0019766
-8.8437777 71.7761219 -36.7990620
-9.0851439 68.1557357 -41.0875343
-9.0899533 70.9361881 -37.8206559
-8.6490642 68.6783046 -40.6046622
-8.7165795 69.1287741 -40.0841311
-9.0861144 64.4480437 -44.9091606
-9.1226352 72.9195699 -35.1520739
-9.7257849 72.9923919 -34.8728560
-8.9773098 65.0297850 -44.3546250
-9.0297991 65.9660921 -43.4080847
-8.8468324 65.5148774 -43.8918620
-8.4941369 67.1555996 -42.2678702
-8.2687242 66.4281324 -43.0517904
-8.3985999 67.8813085 -41.5217280
-8.0922954 69.9476227 -39.2821170
-8.4633026 70.9117204 -38.0230546
-7.9666264 70.6662238 -38.4571217
-8.5372459 68.3062971 -41.0393737
-8.5353460 64.1804188 -45.2275872
-8.4385984 64.6909997 -44.7512642
-8.4141186 69.4620758 -39.7727080
-8.2299318 65.2983710 -44.1857316
-8.4163416 71.4290366 -37.3771563
-7.8766029 72.1281767 -36.6067328
-7.9595717 72.7282539 -35.7696936
-8.4648998 72.9165450 -35.3550278
-8.4261028 65.8198521 -43.6451100
-7.8722844 69.2291707 -40.1548222
-8.0046030 68.4852302 -40.9484208
-7.7424226 67.0304745 -42.5221846
-7.8501375 67.5245523 -41.9975370
-7.7372030 65.8744425 -43.6825790
-7.0079747 66.5354803 -43.1238674
-7.5256703 68.0444837 -41.5093079
-8.0359150 64.3718243 -45.0951643
-7.7457111 64.7986010 -44.7194427
-7.4144560 65.3383508 -44.2432240
-7.8188619 71.2149367 -37.8180034
-7.6816599 71.6463625 -37.3025127
-7.2239861 70.5058277 -38.8392136
-7.1591446 69.9153543 -39.5431146
-7.1834628 71.0909888 -38.1390601
-7.0683137 67.4820766 -42.1677828
-7.0877802 71.9235688 -37.1019170
-6.8746847 72.4095628 -36.5143530
-7.2227870 72.7364868 -35.9725207
-7.0292912 68.7337816 -40.8657305
-6.9094114 69.4269538 -40.1425809
-6.7811813 68.1232587 -41.5564775
-6.9069192 64.8233071 -44.7740257
-7.0552249 65.8061132 -43.8369513
-6.2031182 67.2448799 -42.5335281
-6.3078417 65.8556670 -43.8776240
-5.6462530 66.5252805 -43.3037765
-6.7908857 65.4094294 -44.2466289
-7.2417776 71.5090409 -37.6000144
-6.1677136 69.2858174 -40.4382907
-5.9268167 68.4937015 -41.3103104
-6.3378322 67.8328052 -41.9270061
-6.5528168 70.3973770 -39.1288176
-6.3153836 69.9299350 -39.7107042
-6.4184293 70.9649697 -38.4818316
-6.2532676 65.2078316 -44.4875509
-6.1870748 64.6750107 -44.9692085
-6.4734006 71.6372356 -37.6317427
-5.6905239 67.7931756 -42.0608409
-5.4442128 67.2720671 -42.6058732
-6.4182328 72.1759349 -36.9485393
-5.3726006 69.2126453 -40.6544469
-5.2153501 68.1810901 -41.7383835
-4.7950363 68.7395558 -41.2297025
-5.4410715 69.8718354 -39.9404876
-5.6934245 65.9509972 -43.8558757
-5.6713433 65.5193776 -44.2568138
-5.1265666 65.8827424 -43.9602397
-4.6696537 67.0708716 -42.8792052
-4.6805898 66.3499907 -43.5557701
-5.6321342 64.9417639 -44.7751619
-5.6640371 70.6162080 -39.0657745
-5.4462007 71.4792013 -38.0818993
-5.5722543 72.2517148 -37.0648466
-6.1139972 72.6252571 -36.4283435
-6.5626088 72.8358254 -36.0215157
-4.9954690 67.7058697 -42.2370471
-4.9841222 65.2475804 -44.5447154
-4.6552164 68.1504980 -41.8415442
-4.5193280 69.6387514 -40.3426960
-3.9777430 68.3631077 -41.7087525
-3.8801674 69.0999553 -40.9878641
-4.5953286 70.4875439 -39.4166671
-4.8888242 71.0845739 -38.6875160
-4.5522642 72.1384361 -37.4613591
-4.5857476 71.5616420 -38.1811857
-4.2823683 67.7440912 -42.2771275
-4.6969256 72.7252141 -36.6591364
-5.3560687 72.8992969 -36.2548716
-4.0570148 65.6753778 -44.2013927
-3.8869095 66.5750504 -43.3986485
-3.7352669 67.2996864 -42.7424014
-4.1494477 71.2076277 -38.6821888
-4.0235012 70.1791719 -39.8479328
-3.4588471 70.7302094 -39.3196531
-3.5056076 69.8262677 -40.2892828
-3.8929314 71.8252286 -37.9930884
-3.7169221 72.3247901 -37.4047831
-3.9816299 72.6976395 -36.8673988
-3.4420996 64.8786798 -44.9162722
-3.2156368 66.1743209 -43.7913463
-2.7643996 65.4847547 -44.4008894
-3.2653352 68.7303543 -41.4251797
-3.2069390 69.2732558 -40.8954546
-3.6524814 67.8571165 -42.2283970
-3.3054643 68.1967586 -41.9355445
-2.9569105 66.8669716 -43.1839563
-3.4577819 71.4781210 -38.4791158
-2.8931662 72.1541569 -37.7554819
-2.6008619 70.2075586 -39.9888158
-2.8818154 71.4114979 -38.6341885
-2.4311685 70.9751025 -39.1777232
-2.8314355 69.6121156 -40.5906774
-2.9600346 67.6717535 -42.4507633
-2.6927819 64.7686049 -45.0139679
-2.4120884 66.2629381 -43.7358357
-1.6146606 65.7622740 -44.1635586
-3.2785267 72.7333575 -36.9680189
-2.1588923 71.6731176 -38.4252816
-1.9344044 72.2588077 -37.7767086
-2.0743406 72.7404207 -37.1754430
-2.6541017 72.8365108 -36.9560197
-2.6727589 68.3534294 -41.8336466
-2.5480350 69.0810606 -41.1457196
-1.8877448 70.5925971 -39.6506339
-2.2922459 69.6572289 -40.5941270
-1.7895639 70.0292513 -40.2524956
-1.5888629 71.1969659 -39.0221290
-2.3196964 67.2721043 -42.8483896
-2.1733604 66.8086633 -43.2672538
-2.0836249 67.8520650 -42.3316546
-1.8805825 68.5868263 -41.6655242
-1.6916728 69.3459585 -40.9495868
-1.2215256 71.9910040 -38.1772816
-1.7536016 66.4804354 -43.5590968
-1.4333160 67.1653077 -42.9648682
-1.2469757 68.0715516 -42.1725847
-1.1442485 66.4095879 -43.6184034
-0.5900963 65.9007877 -44.0337099
-1.0542927 68.8282922 -41.4872020
-1.2410904 69.8259696 -40.5016541
-1.0449346 69.4137737 -40.9271121
-1.0222994 70.5296993 -39.7836268
-0.8048875 71.3783950 -38.8991721
-1.3330958 72.6845339 -37.3556018
-0.5478947 72.6450607 -37.5122316
-0.1855833 72.0314011 -38.2513553
-0.4239134 67.6989257 -42.5186381
-0.3411135 66.7495951 -43.3232784
-0.6310191 68.3324635 -41.9627167
-10.5549535 69.3127811 51.6491048
-10.2095790 70.1084211 50.7387035
-10.0528244 69.6791634 51.2883998
-10.1373624 66.1506131 55.2240312
-10.0084255 67.3895106 53.9063476
-9.6510015 66.7654052 54.6261109
-9.5870569 65.6272620 55.8302440
-10.3251301 67.9507926 53.2472022
-10.1646669 68.7511042 52.3710847
-10.0428220 69.1781268 51.8911183
-9.9853761 68.4192777 52.7726114
-10.4677295 71.9716102 48.2831933
-9.6733086 64.3476397 57.1113192
-9.3759652 65.0938824 56.3954636
-9.5486799 64.7741258 56.7051917
-10.0390129 63.9321581 57.4993752
-10.3892591 63.7386665 57.6648861
-10.3456322 70.4057813 50.3488369
-9.9344188 71.3669583 49.1931997
-10.2226734 70.7534924 49.9328524
-10.0451056 71.8732551 48.5049337
-9.9694710 72.3973438 47.7836058
-9.3825301 66.2550628 55.1996492
-9.3672620 70.2269375 50.7300608
-9.9102296 70.4745427 50.3391400
-9.2974203 69.5632100 51.5421629
-9.0496456 67.3845112 54.0303700
-9.3697757 68.1012422 53.2049574
-8.5675409 66.6877776 54.8248626
-9.4130505 68.8708797 52.3340330
-8.8976910 66.0174713 55.4922521
-8.5752718 65.4053614 56.1295561
-9.4022201 70.8718002 49.9239713
-9.3074609 72.0240772 48.4393835
-8.6586056 71.5644211 49.1664000
-8.8679446 72.6763234 47.6312935
-10.1795485 72.8552788 47.0636711
-9.4910273 72.9676932 47.0681451
-8.2713170 67.9619163 53.4903482
-8.4588267 68.6924532 52.6570305
-8.3405403 67.3620254 54.1370995
-9.0480177 64.7262484 56.7751527
-8.8810883 64.1070157 57.3646426
-9.5531037 63.7681335 57.6713867
-8.3175730 70.8303005 50.1516275
-8.5123321 69.3583116 51.8922396
-8.3598848 70.0465143 51.1033311
-8.3000949 66.0834163 55.4732680
-7.9053119 67.1608597 54.3927737
-7.9567712 66.3620979 55.2158244
-7.4678552 66.7358637 54.8653454
-8.3800694 72.2457618 48.3262800
-8.2125794 64.6071583 56.9081567
-7.4232477 65.9112036 55.7024106
-7.6670935 65.1295632 56.4365238
-7.4518262 71.5633407 49.3758358
-8.4390268 71.2389052 49.6150479
-7.8205857 72.0265582 48.7247892
-7.4680955 68.5942993 52.8790727
-7.8254044 67.5793737 53.9554097
-7.2901295 67.9737180 53.5750389
-7.6561403 69.2371652 52.1390401
-7.8409379 69.7160885 51.5687168
-7.5519634 70.5243871 50.6517068
-7.5925370 70.0853691 51.1714257
-7.4144211 70.9972233 50.0921197
-7.2424128 67.4016848 54.1898832
-6.5366258 66.4544255 55.2111343
-6.5310211 67.1143755 54.5299277
-6.9040190 65.2082413 56.3924424
-6.5685455 65.6997934 55.9630841
-6.6952482 66.0421252 55.6310564
-7.1891672 64.4826815 57.0371561
-7.9106595 63.7635291 57.6773062
-6.5114903 68.4652478 53.1091914
-6.5594949 69.2004934 52.2998348
-6.3485927 67.7970126 53.8294837
-7.0498283 69.8360801 51.5288040
-7.2866520 72.0617473 48.7736650
-6.6880109 71.2265298 49.9162152
-6.8976260 72.0036477 48.9109308
-6.5265670 71.7750117 49.2562987
-7.7519366 72.3986104 48.2502095
-7.4008070 72.3057538 48.4382398
-7.8805024 72.7653727 47.7233753
-7.1308403 70.2884197 50.9953164
-7.0503056 70.8288401 50.3573939
-6.9668484 70.5741420 50.6782457
-6.0630320 69.8944405 51.5761487
-6.4671175 70.4067349 50.9376042
-5.7021556 68.8703805 52.7395010
-5.4297275 69.4745556 52.1086752
-6.3563939 64.7262633 56.8281598
-6.1816806 65.2519986 56.3772991
-6.3457857 64.1240850 57.3420227
-6.9486336 63.7789890 57.6526038
-6.8657645 72.3958015 48.4096184
-7.2841831 72.6326704 48.0231270
-6.6135735 70.8082765 50.4418425
-6.1609573 66.0427064 55.6479916
-5.8519724 66.8665841 54.8041128
-5.4906746 66.3695186 55.3043187
-5.9347986 65.6588227 56.0196340
-5.6637847 68.3223084 53.3216074
-5.6739510 67.3798993 54.2849712
-5.4767705 67.8738281 53.7913591
-5.8657359 71.6022700 49.5676175
-5.8795759 70.9906667 50.3127351
-6.3582747 72.2083449 48.7320237
-5.8945087 72.0304847 49.0280539
-5.5388128 70.4321340 51.0166995
-5.3144116 69.9933171 51.5467487
-5.7090311 64.8489743 56.7139499
-5.5653052 65.2943626 56.3339703
-5.8209733 64.3978491 57.0953377
-5.6112846 65.9315884 55.7551868
-5.4168650 65.6351224 56.0268462
-6.2537757 72.5872964 48.2574180
-5.7110353 72.4464059 48.5247038
-6.5832348 72.9501694 47.7206483
-4.9880412 66.9715703 54.6904653
-4.9698711 65.8691525 55.7675324
-4.2328374 66.3599744 55.2450456
-5.1890612 71.4628994 49.8289317
-4.7783460 70.9719211 50.4671633
-5.0083706 72.1092969 49.0544476
-4.9775485 69.0650791 52.5823608
-5.0664381 68.6714426 52.9901758
-4.8198826 69.8342919 51.7706424
-4.5721261 69.4392622 52.2134118
-4.7183386 70.3119636 51.2416400
-4.8202695 67.6156580 54.0567972
-4.8696757 68.2285354 53.4484312
-5.1753437 64.4276589 57.0326336
-5.1620449 64.9414435 56.6068403
-5.5514914 63.8316646 57.5517826
-4.9403547 65.3433278 56.2441163
-4.4057583 71.6243386 49.7326516
-3.7875681 70.6814304 50.9052314
-3.9210399 71.2732747 50.2092391
-4.9985773 72.8048980 48.1747612
-4.0048780 72.1359923 49.1609089
-3.9879270 72.7457106 48.4030023
-5.7504443 72.9258657 47.8955321
-3.8410320 67.2041029 54.4306003
-4.4236663 64.7470951 56.7008182
-4.4185193 63.7627319 57.5168021
-4.0738964 69.9329898 51.7149642
-4.0717991 68.0142939 53.6653474
-4.0807556 65.5034557 56.0128726
-3.4850859 65.9236684 55.5854551
-3.5937233 66.6592568 54.9312979
-3.4013616 66.3464218 55.2026220
-4.1289749 68.8564777 52.8300554
-4.0241173 69.4535524 52.2297621
-3.5241614 71.7754886 49.6576913
-3.5945005 64.9078339 56.4829446
-3.6110715 64.3022135 56.9940396
-2.9142157 65.3353855 56.0404956
-3.1044588 71.2985769 50.2628237
-3.2786606 70.2089593 51.4680706
-2.6448797 70.7423985 50.9285033
-3.3608573 67.8309649 53.8294651
-2.8995157 66.7237118 54.8164546
-2.7614695 67.4537122 54.1448221
-3.4224850 68.3482215 53.3373356
-3.3394953 69.5746019 52.1269180
-2.8487898 68.9009726 52.7939200
-2.9477812 64.6294355 56.6497743
-3.4942448 63.7442544 57.4411191
-2.8054053 63.9986470 57.1550243
-2.7948932 66.0614520 55.3984232
-2.3870415 64.8102984 56.4294122
-2.0121154 65.6998158 55.6219742
-2.0078681 65.1323125 56.1015122
-3.0886447 72.4127591 48.9393324
-2.6089102 71.8946680 49.6123396
-2.7102274 68.1493282 53.5037071
-2.4847772 69.5576146 52.1640219
-2.5637059 70.0920969 51.6282693
-1.9587458 68.5626417 53.0809015
-1.9065472 69.2627579 52.4345450
-2.1338391 71.4054406 50.2151698
-1.8456572 67.0132935 54.4616543
-2.0533141 66.3432032 55.0740771
-1.9030488 67.8294748 53.7419841
-1.8804827 70.4937503 51.2396134
-1.7822233 70.9796026 50.7168695
-2.3760567 64.4042417 56.7730591
-1.7817619 69.9371248 51.7994687
-1.6843160 64.5415559 56.5593578
-2.0504040 64.0250295 57.0394620
-2.2008822 63.4917244 57.4866831
-2.1939371 72.4030808 49.0491427
-1.5887213 72.0613301 49.4912416
-2.2590212 72.9085505 48.4272391
-3.0167690 73.0081201 48.2115634
-1.0394164 65.2742237 55.8466725
-1.2541752 66.0604611 55.2215055
-1.0656361 71.4343786 50.2097271
-1.5017606 66.5233806 54.8571870
-0.9389470 67.5607249 53.8849384
-0.8415768 66.6986927 54.6209551
-1.1812717 68.2794601 53.2782562
-1.4052830 72.7295280 48.7258174
-1.0506875 72.4095628 49.1222925
-0.6376854 72.1354634 49.4313240
-1.1913631 68.9732879 52.6570454
-1.1843762 69.6227700 52.0709828
-1.3510139 70.3596771 51.3863862
-1.2002060 70.7811043 50.9378165
-1.1521648 70.0811297 51.6510829
-1.1851746 63.6737570 57.1892932
-0.7331762 64.4567981 56.4830564
-0.5609926 68.1139529 53.3615239
-0.5117524 68.6661676 52.8680719
-0.0163126 67.2359914 54.0515147
-0.1950382 67.7981973 53.5928756
-0.7557379 65.7848194 55.3851239
-0.5562350 66.1254078 55.0712496
-0.4051854 69.4318637 52.1712638
-0.7051936 69.9710473 51.7157093
-10.3653185 63.4138659 57.9726398
-10.0286156 63.6092126 57.8085370
-0.9316971 62.8902614 57.7719845
-0.4385076 62.0336421 58.3628602
-0.4656196 62.5074208 57.9971485
-7.8483233 73.1761381 -35.1779424
-7.3952954 73.0504245 -35.4907401
-8.4310584 73.4065473 -34.6656926
-9.2795212 73.3361691 -34.5099606
-6.6926153 73.2402876 -35.4209617
-5.9328922 73.1418729 -35.7669927
-7.2651030 73.3526871 -35.1014994
-5.6735845 73.8390163 -34.8479226
-6.8186838 73.6946985 -34.7355492
-5.2255010 73.3776093 -35.6289744
-4.6245214 73.2321739 -35.9908044
-4.1257106 73.0724186 -36.3371298
-4.5633400 73.7440139 -35.2904610
-3.8090416 73.5295564 -35.7906595
-3.5443739 73.1264800 -36.4012048
-3.2011478 73.4668300 -36.0257365
-2.9043832 73.1948987 -36.4490114
-3.1406751 73.7961829 -35.5905369
-3.5081343 74.2051676 -34.9247977
-2.6425391 73.6355484 -35.9209850
-2.1425618 73.3057037 -36.4508443
-1.5140990 73.1370598 -36.7751643
-1.9332137 73.8907680 -35.7263982
-1.3223096 73.6301765 -36.1796543
-2.5799447 74.0987509 -35.3071280
-0.7292060 73.2682347 -36.7312431
-9.9686431 74.6849999 -32.2357081
-10.1907989 75.1095116 -31.4744078
-9.9756056 74.9553591 -31.7975208
-9.6569629 73.9940107 -33.4118418
-9.8805232 73.4458491 -34.1674425
-9.5075238 74.5227039 -32.6355398
-10.1168239 75.4551068 -30.9179053
-10.0313295 73.1262490 -34.5911793
-9.8572960 75.8441910 -30.3433873
-9.6855378 76.1665925 -29.8487619
-9.2295725 76.4166862 -29.5753106
-9.0522636 76.7969340 -28.9710592
-9.1589997 77.3369968 -27.9750004
-9.2286188 73.7258196 -33.9509882
-9.7319232 73.2260793 -34.5355161
-8.9100087 74.3838921 -33.0453329
-9.0033058 74.0442798 -33.5414633
-9.6564405 75.2914324 -31.3449912
-9.5188618 75.6664649 -30.7623595
-9.4037019 74.9803483 -31.9381058
-9.2589343 76.0519728 -30.1955491
-8.7909643 74.8338923 -32.3739201
-9.2129372 75.5399987 -31.0811680
-9.1534201 75.3300041 -31.4502642
-8.9918934 75.8139342 -30.6963921
-8.7491833 75.2393976 -31.7354798
-8.8325320 76.3339326 -29.8611671
-8.6782714 76.1203691 -30.2857831
-8.6403899 76.6421854 -29.3920338
-8.8204835 73.6292601 -34.2226028
-8.7168813 73.8999099 -33.8524096
-8.7262057 75.5956098 -31.1568547
-8.4900418 74.2125213 -33.4475227
-7.9930741 74.6897459 -32.8642689
-8.3286362 77.0807490 -28.7284963
-8.0342889 77.5583833 -27.9703345
-8.2053291 77.8026059 -27.4596084
-8.1359996 78.2580003 -26.6490001
-8.5360361 75.9066418 -30.7017416
-8.1617963 75.1813427 -32.0292227
-8.2372883 75.5102187 -31.4701423
-8.3421543 76.4375925 -29.8594590
-8.0890292 76.1762187 -30.4042529
-8.1772693 75.8245587 -30.9694372
-8.4353629 73.7716928 -34.1319479
-7.8904284 73.9072934 -34.0975598
-7.5777480 73.5844374 -34.6719809
-8.0435695 76.7868459 -29.3581858
-8.3086062 74.0087405 -33.8189751
-7.6166703 77.3689970 -28.4742638
-7.7415179 77.0752653 -28.9587677
-7.4886293 78.0573860 -27.2438582
-7.3983362 77.7042881 -27.9402565
-7.3940586 78.5674751 -26.2860414
-8.0450000 78.7789971 -25.6099999
-7.9931300 74.2413551 -33.5629061
-7.3782220 75.3254816 -32.0669822
-7.2672935 74.3768141 -33.5841663
-6.9338870 74.9529004 -32.8054801
-7.7519077 76.5648335 -29.8576616
-7.8035905 75.4831657 -31.6683464
-7.7855736 75.7322088 -31.2664546
-7.6692086 76.0225132 -30.8217928
-7.4460953 76.3541386 -30.3377416
-7.4298033 76.9200996 -29.3539651
-7.2666635 77.2202313 -28.8784094
-6.9060996 77.5764883 -28.3677597
-7.2112493 73.9513785 -34.2429765
-6.9265268 77.9618174 -27.6433323
-6.8440293 78.4307867 -26.7756414
-6.9470974 78.1781897 -27.2246301
-7.4295895 75.6580755 -31.5143801
-7.3644244 75.8860186 -31.1616343
-7.1300077 76.7120197 -29.8346356
-6.6153770 77.1609247 -29.2356089
-6.7920326 75.8547634 -31.4126834
-6.5046819 75.4440352 -32.1774259
-7.1207895 76.1550814 -30.7968576
-6.8841954 76.4895529 -30.3142108
-7.1692341 79.0470988 -25.3923871
-6.6685812 78.8342133 -26.0442533
-8.0000004 79.0219977 -25.0990000
-6.2062396 77.6283219 -28.5521504
-6.2800744 77.9924169 -27.8465599
-6.3370029 74.6973827 -33.3916955
-6.4991261 74.1779730 -34.1187045
-6.1080800 75.1681998 -32.7455625
-6.6219959 76.7798796 -29.9085230
-6.0302513 78.6855668 -26.6186837
-6.5128510 78.2645419 -27.2340588
-6.5019033 79.1681185 -25.4315827
-6.0510482 79.1090727 -25.7589743
-6.5041836 79.4780776 -24.7740652
-7.0566563 79.4830099 -24.5005172
-6.0388078 76.9189596 -29.8843365
-5.9953877 77.4413273 -28.9777350
-5.8995327 77.2493705 -29.3576326
-6.5394267 76.3160661 -30.7356361
-5.9509394 75.8299604 -31.7469053
-6.0159629 76.2089416 -31.1021302
-5.8486583 75.5183920 -32.2836824
-6.4174426 76.6148940 -30.2719213
-5.6955558 77.9304355 -28.2030851
-6.0216626 78.3411786 -27.2921752
-5.6575653 78.2461464 -27.6282597
-5.7156021 77.6686296 -28.6770444
-5.6896494 74.4867101 -33.9028686
-5.9802686 76.5653253 -30.5146612
-5.5206749 75.0022158 -33.1865698
-5.3827190 79.1574866 -25.9723887
-5.6033703 78.5191134 -27.1296874
-5.1222458 78.8319632 -26.7371852
-6.0992804 79.3748274 -25.1863766
-5.5989833 79.4378072 -25.2971034
-5.4962030 75.3768831 -32.6215364
-5.3538685 76.1807039 -31.3789770
-5.1756636 75.7596567 -32.1204476
-5.4592378 76.4966831 -30.8190621
-5.1012780 74.4034871 -34.2005193
-4.5561078 74.2583498 -34.5637985
-5.3091580 77.2249475 -29.6240356
-5.3976383 76.8321380 -30.2718822
-5.5164509 77.4984732 -29.0612932
-5.1442925 78.2033205 -27.9229917
-5.1409435 77.8438896 -28.5855606
-5.1715169 78.4915611 -27.3697358
-5.0120223 74.7857392 -33.6671770
-5.1635103 75.3118321 -32.8307897
-5.1593520 75.4903108 -32.5556435
-4.8408890 75.1743093 -33.1390947
-4.5671109 79.2935565 -26.0910541
-4.7334447 78.6887482 -27.1870345
-4.3480331 78.9888278 -26.7877188
-4.9110916 79.5888826 -25.3281631
-4.5238142 76.3061568 -31.4584672
-4.8021423 75.5054355 -32.6443873
-4.2668502 75.8568496 -32.2641954
-5.0227558 77.5611997 -29.1415118
-4.9899681 76.4756501 -31.0209822
-5.0067166 76.7115355 -30.6205805
-4.5789480 77.0709440 -30.1635619
-4.6937084 77.4401128 -29.4822603
-4.4327448 78.2470629 -28.1378198
-4.4410499 77.7964890 -28.9500877
-4.7512292 78.4604251 -27.6097097
-4.5846971 74.6333152 -34.0172835
-4.3437327 74.9993473 -33.5501619
-3.9217942 74.7053996 -34.1002271
-4.2095473 75.4281431 -32.9469554
-4.5992360 76.6775534 -30.8219269
-3.3861576 76.3651729 -31.7528173
-3.8902562 76.8182054 -30.8393687
-3.5064360 75.7664144 -32.6515846
-4.1696401 79.7246173 -25.4310649
-4.0592416 79.2686492 -26.3857841
-3.9592660 79.4959441 -25.9904712
-5.3054108 79.7161534 -24.8652231
-4.4748397 79.8795521 -24.9580629
-4.8616808 79.9158663 -24.6774945
-5.8294516 79.6829090 -24.6686079
-4.1059428 77.5440931 -29.5272712
-3.6151910 77.3125291 -30.1120598
-3.7551497 78.1158954 -28.6536310
-4.2607714 78.6709711 -27.4277534
-3.5189833 78.6363855 -27.8101657
-3.9208424 77.8197348 -29.1165933
-3.7592866 79.0027454 -27.0288065
-3.9169434 79.1651607 -26.6521703
-3.5054360 75.2542913 -33.4221609
-3.1180386 76.9101158 -30.9677124
-3.4040811 77.0773664 -30.5877421
-3.3703952 77.8187439 -29.3300860
-2.7590042 76.0366023 -32.4800722
-2.5802588 76.7709836 -31.3903205
-2.4465115 76.4453486 -31.9544934
-3.4878172 79.4000030 -26.4028721
-3.4960338 79.7936320 -25.6365780
-3.7197743 79.9810737 -25.1491591
-4.0364997 80.0424367 -24.8559676
-2.9540928 77.5845051 -29.8971981
-2.9893299 77.2649348 -30.4257572
-2.8298162 78.3717558 -28.5703838
-3.0035644 79.1531801 -27.0872973
-2.5703267 78.8880587 -27.7598780
-2.9246828 75.6418034 -33.0253504
-3.0494307 74.8646781 -34.1181532
-2.4887158 74.5980591 -34.6426591
-2.6079258 75.3507316 -33.5457250
-3.0008568 79.7478557 -25.9738956
-2.6818612 79.5710981 -26.4613293
-2.4020062 77.9779330 -29.4275265
-2.8528438 80.0535306 -25.4556462
-3.2606139 80.1525638 -25.0458419
-2.4549474 77.1581382 -30.7999831
-2.3844773 77.5419474 -30.1812850
-1.9921050 79.4181228 -27.0586945
-2.2968207 75.0478208 -34.0643376
-2.0339109 78.4406736 -28.7695341
-2.1474317 78.7195489 -28.2381363
-1.8187368 77.8163970 -29.9218129
-1.4086082 78.2618672 -29.3116271
-1.9199682 79.0250525 -27.7930144
-2.4694107 79.9193606 -25.9088762
-2.6171375 80.4507583 -24.7904845
-2.2536186 80.2549869 -25.3729392
-3.6213682 80.1934376 -24.7703400
-3.2386652 80.4426670 -24.4662426
-2.1175847 79.7839612 -26.3328869
-2.0419357 76.2003288 -32.4637257
-2.2619143 75.7866800 -33.0111533
-2.1018193 76.7271593 -31.6317379
-1.9730029 77.0107433 -31.2155448
-1.8157020 76.5610933 -31.9860280
-1.6385650 75.4875019 -33.6162038
-1.6784074 77.4417222 -30.6013878
-1.8167974 74.4155720 -35.0495577
-1.7293488 74.9163330 -34.3895108
-1.8887194 80.1010653 -25.8524660
-1.5059266 79.2269707 -27.6122633
-1.5378789 79.9054801 -26.3809934
-1.2635877 79.7191337 -26.8426854
-1.2995721 79.4780105 -27.2574425
-1.3706802 78.8644627 -28.2960720
-1.6253656 75.9838074 -32.9108797
-1.3589684 76.3738826 -32.4110389
-1.3242194 77.1186128 -31.2548913
-1.6943867 76.8391192 -31.5900929
-1.2121162 77.8518468 -30.0761852
-0.5710358 77.5844827 -30.7317562
-1.1455379 74.2017329 -35.4672782
-1.6666773 80.4420188 -25.3166482
-1.2559545 80.2940950 -25.7979948
-2.0046982 80.5593133 -24.9092784
-1.2565517 76.7700225 -31.8351686
-1.0767257 74.7401267 -34.7697064
-0.4351524 78.7234083 -28.8825259
-0.9296584 79.3371871 -27.6587866
-0.5613132 79.1617557 -28.1021558
-0.5751832 78.1478509 -29.7971498
-1.1082405 75.1705840 -34.1866687
-0.8473605 76.0543197 -33.0258906
-0.6830033 75.5524710 -33.7667800
-0.6781786 80.1067278 -26.3995845
-0.7672646 77.0585611 -31.5227285
-0.7866898 79.6763673 -27.1186139
-0.5806801 76.6602531 -32.2075561
-1.0909648 80.6487501 -25.2166018
-1.4703149 80.7875693 -24.7451309
-0.6346690 80.5526227 -25.6164875
-6.9639999 80.0980031 -23.1699999
-6.6384128 79.7711164 -24.0665060
-6.4388467 79.9761266 -23.7163790
-6.2714382 80.1519081 -23.4143510
-6.0924301 80.3935230 -22.9656156
-6.3860002 80.5969983 -22.3559998
-6.2136953 79.8230991 -24.1701622
-6.0910583 80.0396129 -23.7590726
-5.7539688 79.9959674 -24.0328927
-5.7561854 80.2554637 -23.4583840
