# 3D Systems, Inc.
# New Model
53.5696559 -64.7816136 -41.6957662
53.5581335 -64.2070323 -41.9229604
53.1734116 -63.9344752 -42.2711372
53.1894900 -67.7846670 -40.3155647
53.3185229 -66.0626143 -41.2440412
53.1074628 -65.6640977 -41.5824763
53.3947647 -74.0995631 -36.9322859
53.5504520 -73.4688416 -37.0955877
53.5917729 -65.4217154 -41.3985513
53.8108051 -72.3930597 -37.4144800
54.0738143 -71.1213276 -37.8768779
54.2708412 -71.8425661 -37.3332202
53.8805872 -77.2426426 -35.1753756
53.9245568 -72.8830397 -37.0806903
53.5824671 -67.0129508 -40.5321643
53.7421070 -66.4530024 -40.7541692
53.6540970 -67.6032528 -40.1267633
53.7815019 -68.2538673 -39.6676026
53.5816140 -75.3508434 -36.2331681
53.7964180 -74.3564665 -36.4885405
53.8240783 -74.8948678 -36.2231880
53.9531820 -69.1433102 -39.0708074
53.8131855 -69.8125213 -38.8130434
53.8614467 -75.8132413 -35.7934237
54.0084951 -70.3651607 -38.3599289
53.8224354 -68.6882511 -39.4042842
54.1931652 -76.4785931 -35.2080129
53.8918972 -65.8684000 -40.9827642
53.8343154 -73.8405213 -36.6948955
54.1609600 -73.3692050 -36.6527438
54.0573671 -64.9284422 -41.2959680
54.0179089 -64.3438771 -41.5398963
54.1360863 -66.9257864 -40.2017012
54.1081391 -65.4232278 -41.0567448
54.2219989 -72.4307969 -37.0732248
53.9374240 -75.2741694 -35.9600708
54.3714464 -66.0993084 -40.5098125
54.2058237 -68.4661195 -39.2600670
54.7219776 -70.4613477 -37.7458297
54.7643751 -71.1259544 -37.3262130
54.4094518 -67.6537529 -39.5717584
54.2790182 -73.8991722 -36.2996832
54.3101355 -74.4948983 -35.9891281
54.1815720 -69.5497170 -38.7057066
54.2225912 -69.8651969 -38.5011435
54.4547923 -77.0245120 -34.7302221
54.4918664 -72.7800801 -36.6767682
54.1750975 -74.9856234 -35.8804092
54.6358638 -68.8207895 -38.7518406
54.4053428 -69.2820698 -38.6826098
54.5764007 -69.9479654 -38.1763689
54.2125031 -65.7240450 -40.8411101
54.6323843 -72.2273290 -36.8437171
54.5976572 -66.5943101 -40.0625132
54.6066649 -67.0074746 -39.8101620
54.2353243 -75.3246099 -35.6750749
54.6307527 -75.6105557 -35.1871215
54.6108782 -64.4871891 -41.0236046
54.3984473 -65.0854707 -40.9861878
54.3575771 -63.8158247 -41.4350107
53.9024957 -63.8118386 -41.7965204
55.0518632 -71.6598779 -36.7960334
54.8999459 -73.3257979 -36.0566936
54.7090322 -68.1858957 -39.0515849
54.5064993 -69.5854053 -38.4454802
54.9010523 -77.2108287 -34.2190005
55.0013185 -77.8117776 -33.8569134
55.0191291 -76.3903856 -34.4661959
54.6764843 -74.0002990 -35.9111354
54.4617325 -65.4907897 -40.7621823
54.5633584 -74.9404952 -35.5576277
54.8526421 -74.3874386 -35.5645046
54.9912974 -66.1638603 -39.9996862
54.9282506 -65.5133128 -40.3712802
55.1276021 -72.4180117 -36.3373123
55.2218221 -67.6434636 -38.9809944
55.0183617 -67.0905486 -39.4477323
54.7534972 -69.2591295 -38.4285487
54.8613332 -69.5346519 -38.1891206
54.7135435 -65.0811940 -40.7378376
54.9037419 -66.6990280 -39.7679955
55.1403947 -68.3325976 -38.6490375
55.3426519 -69.0204874 -38.0868241
55.1678054 -74.8457015 -35.0523330
55.0776012 -69.8018223 -37.8458686
55.1222116 -64.8133904 -40.4884294
55.2663393 -64.0949383 -40.5779369
54.8716709 -63.6927560 -41.0339460
55.1533401 -70.6512406 -37.2726396
55.3128943 -71.0076764 -36.9338058
55.0407320 -73.8932341 -35.6447883
55.3438775 -70.1599494 -37.3984985
55.7502136 -77.0336911 -33.4579684
55.3623028 -75.4863843 -34.5582664
55.3266741 -66.5308312 -39.5288691
55.4586016 -77.9807270 -33.3289467
55.4100424 -72.8158578 -35.8918309
55.4230474 -73.5963210 -35.4573168
55.4895438 -73.1569454 -35.6361493
55.5223711 -65.2025193 -39.9922244
55.2558117 -65.7015070 -40.0230177
55.3496778 -74.1552636 -35.2326147
55.8407977 -75.8882686 -33.9019522
55.7006896 -71.7244670 -36.2125449
55.5574074 -71.2620020 -36.5837067
55.4727130 -67.9765046 -38.6107191
55.5183887 -68.3409497 -38.3615233
55.6652099 -66.9310167 -39.0329994
55.7182431 -72.3598674 -35.8675383
55.6609854 -74.9384984 -34.5399268
55.7430312 -74.4148344 -34.7290672
55.6166135 -64.4744113 -40.1502326
55.5546917 -65.8782572 -39.6790281
55.5408485 -69.6340054 -37.5444107
55.6109436 -70.4892725 -36.9712152
55.6530617 -67.6654130 -38.6541970
55.7351559 -67.3520267 -38.7608372
55.7367206 -70.8400160 -36.6610251
55.8477752 -75.2560049 -34.2022814
55.8696836 -66.2648603 -39.2121971
55.8046438 -68.4295893 -38.0791426
55.9810251 -69.2707449 -37.3836160
56.0622886 -68.6988980 -37.6849622
55.8175296 -72.7948844 -35.5452485
55.8884963 -69.8965117 -37.0778926
56.0548119 -78.1570226 -32.6393954
55.8564961 -73.8012344 -34.9474885
55.8941811 -73.2410103 -35.2205671
55.8577478 -67.9303557 -38.3384414
55.9897125 -71.0578635 -36.3179296
55.9548810 -65.3397813 -39.5536423
55.9998155 -65.7636002 -39.3382907
56.1464876 -64.6416917 -39.5893753
56.2101342 -70.3664497 -36.5110822
55.9488609 -63.5949299 -40.0381312
56.1782233 -74.6993199 -34.1594219
56.1651178 -71.9392374 -35.6919393
56.3119911 -71.3239238 -35.8840004
56.1008453 -72.4119022 -35.4994088
56.3595183 -66.5040836 -38.6562943
56.1294928 -67.1064034 -38.5682918
56.1947227 -75.2724335 -33.8521674
56.2359951 -68.1235716 -37.8992297
56.4250797 -65.7991320 -38.9027335
55.9567288 -67.4964339 -38.5100916
56.2341325 -74.0582421 -34.4446525
56.2562048 -76.2038305 -33.3362110
56.4933494 -76.5457973 -32.9313427
56.7039065 -77.1487206 -32.4319527
56.3519374 -67.5071776 -38.1598473
56.4809442 -73.3405650 -34.5979407
56.2830307 -65.3583705 -39.2320901
56.2075041 -65.0846362 -39.4132324
56.2908128 -72.7434009 -35.1304896
56.4462803 -75.6007582 -33.4356092
56.5636270 -69.4402680 -36.7503613
56.4263500 -70.7991049 -36.0667929
56.4047955 -68.9115375 -37.2396260
56.5184355 -72.1686110 -35.2375582
56.6589721 -71.5735033 -35.4306549
56.5513484 -68.4004053 -37.4390744
56.8998903 -74.0368441 -33.7879285
56.6562563 -74.9346912 -33.5595533
56.6325039 -66.9359267 -38.2091403
56.6753149 -70.4151243 -36.0559374
56.7565113 -69.9561462 -36.2523608
56.9451079 -70.7956478 -35.5881788
56.4122386 -64.9557263 -39.2432064
56.6571169 -64.5947680 -39.0802175
56.7459241 -63.8713911 -39.1508602
56.7617714 -67.7612498 -37.6346447
56.7314699 -65.0954098 -38.8463177
56.7437485 -75.9754181 -32.9476669
56.8140633 -67.2571734 -37.8740095
56.9057949 -66.0066903 -38.3506380
56.9422357 -65.4931739 -38.4957306
56.9292381 -72.4564195 -34.6614085
56.8926074 -66.4888918 -38.1734371
56.8037257 -68.7301531 -36.9865969
56.9844544 -75.3458738 -33.0115259
56.9739752 -71.8143880 -34.9915661
57.2559722 -73.0302408 -33.9858159
57.2331622 -74.6649206 -33.1044309
56.9983199 -68.1705102 -37.1586643
57.0015162 -76.3989761 -32.4767455
57.0528135 -71.3304132 -35.1869278
57.0243411 -70.1244175 -35.9024704
57.2731532 -69.4063008 -36.1018740
57.2129488 -64.4779652 -38.4938195
57.1510047 -66.8276623 -37.7628990
57.2134517 -65.0884137 -38.3340009
57.0722967 -68.9451694 -36.5887173
57.1000390 -67.2995001 -37.5717878
57.2512671 -67.6211864 -37.2374766
57.5151406 -74.0903839 -33.1151150
57.6453060 -73.4630004 -33.3217271
57.1673401 -68.5032681 -36.7824025
57.2788008 -75.7859498 -32.4845128
57.3409200 -66.2366375 -37.8301181
57.3330261 -71.0037276 -35.0943990
57.4466176 -70.0150430 -35.5626270
57.5772300 -70.5001280 -35.1426527
57.4437752 -68.0550933 -36.7866457
57.4580207 -65.5917227 -37.9272290
57.5536340 -75.1235560 -32.5276479
57.3316924 -71.8758777 -34.5927402
57.6544628 -72.1633658 -34.0768993
57.3606975 -71.4156851 -34.8314755
57.4754216 -67.0935959 -37.3013951
57.6731488 -66.5610433 -37.3539180
57.7377193 -67.4467906 -36.8360467
57.7221140 -64.9545044 -37.8155857
57.4742593 -68.6239526 -36.4004783
57.7950589 -74.4561031 -32.6171331
57.9148792 -64.2869025 -37.7469920
57.5002432 -63.5982305 -38.3649766
57.7356890 -70.9336996 -34.7254500
57.8622557 -66.0170168 -37.3722799
57.7455349 -71.4812800 -34.3910903
57.9290949 -72.6976171 -33.4577970
57.9443127 -69.2956001 -35.5092511
57.7938780 -68.7944591 -35.9760746
57.8915440 -69.9323863 -35.1685211
58.0219626 -68.0305362 -36.2053066
57.8955896 -66.8932647 -36.9625241
58.1114925 -70.2810064 -34.7243287
58.1506453 -65.4807985 -37.2195914
58.2185648 -66.3502887 -36.8543006
58.0183640 -73.8117695 -32.7230096
58.2201928 -65.9100637 -37.0299816
58.1060126 -71.5749860 -33.9428857
58.2943037 -71.9769746 -33.4828161
58.3342500 -64.8265257 -37.1598601
58.3448336 -67.0796856 -36.3687463
58.2945384 -70.8776414 -34.1588333
58.2571737 -73.1025934 -32.8548662
58.1917465 -68.5940683 -35.6981568
58.4974103 -64.2110854 -37.0910764
58.1975430 -63.5578930 -37.5644006
58.3679974 -69.5494264 -34.9103026
58.4785007 -72.4202842 -33.0052264
58.5502647 -68.0918172 -35.6162824
58.5708581 -67.5839931 -35.8726494
58.5797392 -68.7442794 -35.1863690
58.6157590 -73.5352635 -32.2035402
58.3082847 -74.1888210 -32.1934856
58.5524365 -71.3418052 -33.5808955
58.8032417 -69.8672459 -34.2279449
58.8633306 -72.6739466 -32.4074216
58.5684888 -65.7922253 -36.6657004
58.8752441 -66.2665293 -36.1295305
59.0602867 -71.6253817 -32.8029618
59.0153933 -70.6292614 -33.4900916
59.0643659 -67.0776442 -35.5497673
58.7401390 -65.2054250 -36.6163589
58.8555001 -69.1539869 -34.6333198
58.8488765 -64.6077245 -36.6054103
58.8191934 -67.6665157 -35.5548672
59.0260625 -67.9425374 -35.1516828
59.0411946 -68.5714260 -34.7764269
59.0848923 -65.5480549 -36.1254513
59.0638593 -69.2962781 -34.3079157
59.3632646 -69.8476508 -33.5750729
59.3352951 -69.2786723 -33.9833163
59.2491589 -68.8455403 -34.3666151
59.4282709 -66.2832335 -35.4732834
59.3472682 -65.8474490 -35.7268043
59.2779554 -64.8376718 -36.0446200
59.1643564 -64.2590597 -36.2938009
58.8979907 -64.0828684 -36.6447158
59.5735162 -70.6124976 -32.8110233
59.6573204 -71.1343735 -32.3649347
59.4743751 -72.2189099 -31.9377705
59.6422665 -71.5839565 -32.1062058
59.4381019 -70.2343509 -33.2337469
59.4485924 -68.1501999 -34.5293917
59.5677495 -67.3762783 -34.7995870
59.7831234 -66.5721819 -34.9065699
59.5058873 -64.1405135 -35.8996503
59.1843911 -63.5255426 -36.4096016
59.5822744 -65.3503165 -35.5556644
59.7261786 -68.5650259 -33.9342132
59.7783811 -69.2390278 -33.4384255
59.7044826 -65.8391789 -35.2801085
59.8536022 -64.6238849 -35.3468023
60.0275286 -67.6317960 -34.0834595
59.7628206 -69.8808730 -33.0421403
59.7265512 -66.1713555 -35.1542942
59.9683411 -67.0435056 -34.4717950
60.1222180 -65.3878525 -34.8055400
60.0637756 -70.1198056 -32.4824117
59.9757135 -70.6833974 -32.2357006
59.9310100 -66.0081059 -34.9286199
60.1528548 -68.6255619 -33.3241411
60.0987375 -68.1796595 -33.6830057
60.2242723 -66.0851151 -34.4872214
60.2168590 -66.6649416 -34.3016647
60.3054464 -69.2943409 -32.6763280
60.3621155 -64.5449609 -34.6300453
60.1876229 -64.0432835 -35.0145139
59.8684177 -63.9292598 -35.4869589
60.1713173 -67.0757443 -34.1935530
60.2963679 -67.8784773 -33.5924253
60.4140572 -66.9967607 -33.8768139
60.5029762 -67.4738735 -33.5153081
60.3471026 -68.1819394 -33.3363377
60.7199408 -68.3075786 -32.6940939
60.5317988 -65.6484589 -34.1482908
60.6454015 -65.0128275 -34.0958945
60.6211759 -66.2749633 -33.8443965
60.5389401 -67.8867847 -33.2367346
60.7802197 -64.2840415 -34.0209678
60.5367310 -63.9090687 -34.5049910
60.8489998 -66.8566003 -33.2894400
60.8549267 -67.5299093 -32.9505466
60.9318614 -65.5319020 -33.5575119
61.2698570 -67.5562844 -32.2619379
60.7639775 -68.9132363 -32.2585143
61.0190779 -68.5821325 -32.0770554
61.2874515 -68.1366846 -31.9076367
61.0288121 -66.1707297 -33.2692824
61.0581450 -64.7302717 -33.4886461
61.2260476 -66.9709221 -32.6468907
61.2072200 -66.4654970 -32.9008661
61.2507798 -65.7377765 -33.0316387
61.2669364 -65.1801974 -33.0910534
61.2318516 -66.1187172 -32.9830125
61.4091046 -66.0392344 -32.7047966
61.4514649 -66.4715692 -32.4907489
61.4753254 -64.5109043 -32.8366570
61.2013750 -63.8339221 -33.4130600
61.5674630 -65.3442517 -32.5721540
61.6964586 -65.9792274 -32.2136357
61.5438223 -63.8164356 -32.8207575
61.8337877 -63.9081076 -32.3022753
61.8466735 -64.6432117 -32.1948864
53.3640757 -57.7462241 -42.5787196
53.3554330 -57.0919923 -42.4794406
53.2243773 -62.6675636 -42.5331630
52.9449955 -52.7006388 -42.2631688
53.1808808 -53.3671901 -42.1095677
53.3923917 -54.7326580 -42.0660265
52.9387929 -50.4906885 -42.1525501
53.4111820 -53.9999940 -41.9571027
53.3287823 -61.8550107 -42.5889753
53.3796512 -59.8929003 -42.6918864
53.6798723 -52.5749587 -41.5688418
53.3927754 -63.3774474 -42.2731787
53.4961298 -59.0007342 -42.5638333
53.5508171 -58.3701916 -42.4716771
53.4264073 -60.6573112 -42.6270552
53.6418073 -61.2552986 -42.3857644
53.7903607 -55.5612110 -41.7660363
53.5072535 -51.5190773 -41.6784957
53.3294082 -50.7324859 -41.8176092
53.5639003 -63.7642890 -42.0613140
53.7507497 -62.9301071 -42.1016775
53.8978502 -62.1018931 -42.0898609
53.9679267 -57.4660860 -41.8890938
53.8546219 -58.0993220 -42.1178006
53.7723675 -56.7831397 -41.9826023
53.9180897 -56.2841445 -41.7378508
53.8015030 -53.5610877 -41.5243991
53.7521876 -63.4381101 -42.0064256
53.8231023 -54.2187132 -41.5680110
54.0897958 -54.7856092 -41.3514860
54.0794916 -59.6267283 -41.9791788
54.0083274 -58.7250590 -42.0100577
53.9327674 -60.5481826 -42.1434566
53.9316311 -50.8753993 -41.2856564
54.1270040 -51.7851710 -41.1203690
54.4021465 -56.7985289 -41.2815288
54.1205890 -63.2694513 -41.7598039
54.1072749 -62.7213866 -41.8680236
54.3968566 -55.9914187 -41.1637351
54.3856956 -55.3547218 -41.0956182
54.1051887 -61.2961687 -41.9643745
54.5936003 -61.7573373 -41.5099859
54.3978959 -62.4512844 -41.6606665
54.3634668 -58.2120977 -41.5569544
54.2718060 -53.1898662 -41.0303064
54.5252636 -52.4890013 -40.7575853
54.4161536 -60.9297752 -41.6767746
54.3630831 -60.3102632 -41.7126156
54.4127822 -54.0137403 -40.9405157
54.6848178 -57.6220229 -41.0936996
54.3693043 -62.9009008 -41.6356511
54.5691401 -63.2535741 -41.3984172
54.9571700 -51.4516458 -40.3494835
54.3502681 -50.1469932 -40.9323610
54.6212830 -59.0612777 -41.3511395
54.6386354 -59.9092543 -41.4015315
54.7468849 -54.8437200 -40.6491570
55.0874323 -50.2078794 -40.2912572
54.6770766 -49.5087057 -40.6767055
54.1671403 -49.2422245 -41.1162302
54.9167395 -55.6082465 -40.5313075
54.9895875 -56.3812256 -40.5382030
54.7047965 -60.5653152 -41.3759016
54.7811911 -61.1207299 -41.3289927
55.0963432 -57.1485050 -40.5241363
54.7791906 -62.4550171 -41.3252562
54.6322986 -62.8134757 -41.4250903
54.9359284 -58.3766848 -40.9097113
55.1306531 -61.4596084 -41.0012901
55.2284680 -62.2484460 -40.9088321
55.0329052 -59.6565418 -40.9472510
54.9518913 -60.2480285 -41.0941951
54.8938252 -53.3125289 -40.4086187
55.2244596 -54.1981012 -40.0904454
55.2583560 -57.8910597 -40.4459909
55.1205389 -59.0191260 -40.7751054
55.0107472 -62.9893467 -41.0499759
55.0651401 -60.7972853 -41.0256013
55.1694483 -52.6066609 -40.1228480
55.4411933 -55.1246926 -39.8977511
55.3466342 -63.4692684 -40.6573825
55.2948005 -60.2528229 -40.7288857
55.5394702 -55.9962504 -39.8481227
55.6953289 -50.8355349 -39.7060141
55.7489283 -49.8587713 -39.7178717
55.1336445 -49.4007990 -40.2869098
55.7587966 -52.3975939 -39.5393297
55.9420660 -51.6632944 -39.4075848
55.5810817 -56.8216555 -39.8889259
55.4805063 -59.4910085 -40.4185392
55.4058068 -58.6328879 -40.3800048
55.5373877 -60.9870888 -40.5608341
55.5683486 -62.9380122 -40.5316390
55.6194000 -57.5513169 -39.9430655
55.5751473 -61.7214367 -40.5742340
55.7110459 -53.3820391 -39.5604149
55.7079911 -58.2382567 -39.9404988
55.7013825 -60.2671914 -40.2959287
55.8817573 -62.3505525 -40.2672403
56.1037548 -54.5227453 -39.1271375
56.0824238 -61.4854582 -40.0390662
55.9525862 -60.7789420 -40.1072130
55.8147132 -58.9751378 -39.9346761
55.9328645 -59.7184077 -39.9368405
56.1181717 -55.5768907 -39.1371883
56.1748818 -56.5309152 -39.1301811
55.9124649 -62.9356802 -40.2008519
56.0603738 -57.3731102 -39.3687673
56.0622513 -60.3122562 -39.9113707
55.9906140 -57.9585098 -39.5402350
56.1677031 -50.5489223 -39.2942168
56.4516783 -49.9865934 -39.0613712
56.2360659 -49.1355993 -39.2837003
55.5262230 -48.8539897 -39.9381109
56.1198667 -58.5773848 -39.4844040
56.2813133 -51.1847436 -39.1305275
56.2964492 -52.9498272 -38.9625542
56.4378276 -52.2877611 -38.8671160
56.2203340 -59.2934601 -39.5060368
56.4328544 -60.7683435 -39.5773835
56.5269925 -53.6843240 -38.6749096
56.1928749 -62.8388077 -39.9214737
56.5333180 -62.2385070 -39.5915397
56.3479327 -59.9836409 -39.5135283
56.4937852 -51.7216623 -38.8695411
56.6552356 -61.4855550 -39.4347236
56.4502813 -58.1064224 -38.9885604
56.5542094 -58.9567088 -39.0244462
56.6121638 -63.0550236 -39.4485220
56.5496832 -57.3021881 -38.7363918
56.8234026 -55.2783459 -38.2876880
56.8248890 -54.4136763 -38.3059233
56.5861389 -59.5834069 -39.1354784
56.6849150 -50.7889874 -38.7833267
56.7081347 -51.4128506 -38.6961959
56.5976128 -56.0316555 -38.5788120
57.0518151 -58.7294921 -38.3481607
56.8615980 -57.8758530 -38.4187810
56.7689985 -56.6661768 -38.3985452
56.9815412 -50.1809940 -38.5389514
56.9042973 -49.4290031 -38.6381783
56.8867847 -60.2214187 -38.9415026
57.0503660 -61.0789433 -38.9397964
57.0097938 -52.9652648 -38.2046662
56.9451451 -59.4745092 -38.6723392
57.0787899 -51.9418493 -38.2584445
57.1231209 -61.8582591 -38.9431082
57.0224524 -57.2905838 -38.1264761
57.0822433 -62.5917017 -38.9873572
57.2937503 -57.9582155 -37.8699563
57.0855141 -63.1993264 -38.9164202
57.0857376 -56.1156645 -37.9744582
57.2112463 -53.8699329 -37.8925912
57.0064262 -51.2910672 -38.4210050
57.2253130 -50.7762656 -38.2548869
57.1903549 -56.7356199 -37.8662758
57.5455800 -57.2066903 -37.4450795
57.2198667 -59.3895800 -38.3068807
57.6819703 -58.7071963 -37.5163741
57.5083867 -59.3747608 -37.9331149
57.6323308 -49.9415882 -37.8849357
57.3957302 -59.9777065 -38.2625386
57.4042834 -60.6872626 -38.4496860
57.4017577 -54.6961874 -37.6096256
57.5642996 -55.5831790 -37.3701602
57.3546067 -51.3703786 -38.0643308
57.7399321 -57.9294153 -37.2779109
57.5490445 -56.3944355 -37.3934917
57.6936789 -61.4662394 -38.2437520
57.4420728 -62.9159436 -38.5522805
57.7027760 -50.9554558 -37.7530344
57.8182936 -52.5635891 -37.3700038
57.7657260 -51.6887866 -37.5836194
57.6335825 -53.3743538 -37.4609530
57.5909689 -62.3259656 -38.4171680
57.8518137 -54.0751666 -37.1164978
58.0016784 -56.6637143 -36.8099697
58.1051931 -57.4594624 -36.7299020
57.9120517 -56.0506172 -36.9143412
57.8687750 -60.6709756 -37.8783084
57.8557029 -59.9735491 -37.6793630
57.8800701 -62.9251897 -38.0348824
57.8836985 -59.4282262 -37.4550521
58.0572896 -54.9305566 -36.7756411
58.1767000 -58.2984351 -36.7590152
58.2687259 -59.2023768 -36.8658900
58.0630191 -55.5952638 -36.7234573
58.0437630 -50.5687296 -37.4298543
58.1720471 -51.1681139 -37.2207239
58.2142621 -50.0957668 -37.2657776
58.2079068 -49.5461188 -37.2773260
57.3722050 -48.8136522 -38.1316058
57.9348207 -49.1302684 -37.5647545
58.2258739 -53.3542037 -36.7635079
58.4285744 -51.8268012 -36.8094519
58.1716821 -62.2664317 -37.7362855
58.4343225 -61.3778494 -37.3448469
58.3761744 -56.0102277 -36.2912118
58.2836494 -62.9239231 -37.5686660
58.1635013 -59.8264523 -37.2241586
58.5119650 -52.6270680 -36.5504548
58.5342683 -56.8532981 -36.0876732
58.6703978 -57.7955619 -35.9810703
58.2699589 -60.4476258 -37.3077877
58.3643802 -55.3835407 -36.3344364
58.4454536 -50.5773462 -36.9704142
58.6812682 -58.6773381 -36.1333154
58.5341044 -54.2067476 -36.2440161
58.5311055 -54.9441911 -36.1521505
58.5946888 -51.1154272 -36.7366225
58.5829914 -63.1588772 -37.1880122
58.7030239 -63.6655316 -36.9553939
58.9416921 -53.2396957 -35.8869396
58.5980862 -60.0222349 -36.7278121
58.8504188 -59.4265051 -36.1325145
58.7330796 -55.4115921 -35.8312838
58.6769953 -60.7261509 -36.8940830
58.9944050 -56.0874976 -35.4202054
58.6658046 -49.8259179 -36.7237739
58.5307106 -62.6632050 -37.3144858
58.6183444 -62.1963777 -37.2227766
58.9197949 -61.9359724 -36.8481874
59.0829328 -61.2686574 -36.5458243
59.0811521 -57.0925809 -35.3063643
59.1031574 -52.0950295 -35.9244123
58.9660555 -51.2668155 -36.2566113
59.0217710 -60.5320707 -36.4004411
59.1052920 -60.0273311 -36.0593349
58.9042529 -50.5530648 -36.4072509
58.9418896 -62.7202392 -36.8128158
58.8485561 -63.2872134 -36.8540958
58.9119047 -54.7708571 -35.6561616
59.0182059 -58.3357215 -35.5693586
59.1534339 -57.8335822 -35.2794304
59.1540784 -55.2428365 -35.2569446
59.1795556 -58.9602254 -35.4943797
59.1410883 -54.1173033 -35.4458876
59.3832992 -59.6396364 -35.4804546
59.2828952 -54.6732061 -35.1508185
59.4879501 -55.5509441 -34.7274654
59.5864728 -56.4362109 -34.5178992
59.4298504 -62.1126480 -36.2357423
59.3677238 -62.8256500 -36.3026522
59.5703274 -52.7418293 -35.1599231
59.4553687 -53.5426028 -35.1310112
59.3369007 -60.4181588 -35.9588824
59.5502593 -60.1923577 -35.5503671
59.3039691 -50.6815910 -35.8928405
59.4138205 -51.2547307 -35.6841125
59.3711473 -49.7845002 -35.8077884
59.4257377 -58.3876222 -34.9826440
59.4792478 -54.9464114 -34.8239765
59.4179146 -60.8492158 -36.0261984
59.8583519 -51.7075472 -34.9932685
59.6005209 -57.5537235 -34.5621109
59.6050322 -61.3991320 -35.9324664
59.6628152 -54.2639829 -34.6752256
59.5457107 -63.1273314 -36.0547192
59.6385822 -63.5569245 -35.8589403
59.6882366 -62.6790598 -35.9268673
59.8462857 -62.2801222 -35.7310176
59.8626882 -61.8253201 -35.6728435
59.7424582 -59.1914319 -34.7644128
59.8319881 -50.5990386 -35.1829343
59.8958097 -58.4212020 -34.2582576
59.8190464 -63.1077960 -35.7143395
59.9022806 -63.4770468 -35.5435535
59.9126928 -55.5937290 -34.0607986
59.7801507 -54.9852550 -34.3635045
59.9299073 -53.3513390 -34.4986208
59.8641075 -59.9516295 -34.9741243
59.6223474 -60.5861992 -35.6619582
59.9517301 -56.9680147 -33.9271501
60.1769835 -57.7550940 -33.6428471
60.1264723 -56.2259555 -33.6463451
60.2329634 -59.1021888 -33.9657627
60.2258407 -59.7544238 -34.3328603
60.1051748 -52.5363870 -34.4531424
59.9534027 -60.5431758 -35.1785757
60.0465499 -62.6860112 -35.4464799
59.8083995 -60.9774292 -35.5585106
60.2946244 -58.5255958 -33.6350910
60.0258633 -54.5443892 -34.0629704
60.1872541 -53.9356433 -33.9537039
60.3805743 -51.0032699 -34.3813412
60.4297817 -50.1985773 -34.3658924
60.0333922 -49.7133844 -34.9115394
60.3647903 -56.9093563 -33.2225859
60.5645739 -51.8156588 -33.9483060
59.9414632 -61.3947026 -35.4963206
60.1240061 -63.5584369 -35.2198891
60.0544475 -63.1737933 -35.3895091
60.2386259 -60.3139475 -34.6558653
60.1010397 -55.0017729 -33.8532701
60.1319820 -62.1208027 -35.3271738
60.1378791 -61.6599135 -35.2696367
60.3905618 -55.3544462 -33.3096944
60.5617128 -53.0468822 -33.6097740
60.6173947 -58.3412945 -33.0498554
60.6590919 -57.6036498 -32.7875093
60.2410771 -60.6699809 -34.8456688
60.2258034 -61.1265711 -35.0162834
60.5949312 -56.1102964 -32.8396894
60.3443086 -63.0430728 -34.9744000
60.3727736 -63.5796785 -34.8437130
60.6258512 -58.9939319 -33.2891792
60.6732666 -59.6601218 -33.6038955
60.3890158 -54.5193925 -33.4853791
60.5762079 -60.2468401 -34.1142006
60.3573620 -62.4452978 -34.9991582
60.8077496 -56.8351150 -32.4216820
60.4753532 -60.7201941 -34.5149525
60.5445728 -53.8595952 -33.4017351
60.6596023 -61.2379722 -34.4073921
60.8207658 -60.7591830 -34.0072215
60.9047562 -55.2679636 -32.4031487
60.6999137 -54.7497422 -32.8955911
60.6503934 -63.3134469 -34.4467089
60.9407872 -59.3634434 -33.0041125
60.9610565 -60.2823272 -33.5565247
61.1144900 -59.8280206 -33.0473296
61.0299371 -56.0734943 -32.0231393
60.7943051 -50.6162867 -33.8058695
60.7656054 -50.1209460 -33.8720120
60.6689155 -49.8059168 -33.9989625
60.4415871 -49.6043377 -34.3177319
61.1956343 -52.0461760 -32.8587741
60.8143769 -53.6026135 -33.0277383
61.0923655 -53.0930832 -32.7177122
61.0156134 -58.2623221 -32.3541649
61.0916428 -57.5452670 -31.9881625
60.7301891 -62.5455081 -34.4034843
60.7108660 -51.1544570 -33.8839777
60.8435310 -63.6919439 -34.0477861
60.9824695 -58.8915013 -32.6762870
60.7661456 -54.1598313 -32.9375900
60.4642630 -61.8425161 -34.8010585
60.9962307 -51.1952527 -33.4024765
61.0205010 -63.1198585 -33.8624418
61.0455796 -54.4285588 -32.3537327
60.9768331 -61.2267852 -33.9250006
60.9039441 -61.7731139 -34.1207646
61.2434559 -59.3975373 -32.5669162
61.1001849 -53.7619479 -32.4705355
61.4920780 -59.9225871 -32.5090252
60.9697700 -50.1667894 -33.5355811
60.8792640 -49.8295352 -33.6635150
61.1549653 -50.5060554 -33.2037807
61.2631142 -62.2837171 -33.5519686
61.3713712 -63.0274415 -33.2895070
61.4873245 -52.6479669 -32.1726128
61.3696091 -53.3040054 -32.1463943
61.2316653 -61.5091063 -33.5709006
61.3967516 -51.0268360 -32.7283554
61.4979453 -63.4009838 -32.9884104
61.1554272 -49.7707278 -33.1537463
61.6479963 -52.0211123 -32.0847780
61.6696589 -51.4307804 -32.1747996
61.6400391 -62.9373491 -32.8427777
61.5557618 -62.5562966 -33.0550894
61.7335029 -63.3461848 -32.5785652
61.4815094 -50.2771251 -32.6094925
61.4820085 -61.7009513 -33.1866518
61.6846494 -62.0311014 -32.8492336
61.4784323 -61.2121858 -33.1112109
61.5899526 -60.4791716 -32.6618627
61.7584102 -62.5048205 -32.7045955
61.7305450 -60.9635524 -32.5996764
61.8768595 -60.4122542 -32.1121737
61.8851520 -62.7954155 -32.4178226
61.6836995 -61.4762045 -32.8069106
61.9660206 -62.2277409 -32.3342830
61.9824156 -61.4866950 -32.2554894
61.9429350 -60.9357171 -32.2124772
53.3920303 -46.1805463 -41.4890945
52.9026911 -43.4943773 -40.6787470
52.9360063 -42.9972634 -40.2824990
52.7258031 -37.6448333 -36.7936417
52.7943969 -37.1536613 -36.5748443
52.7867191 -36.5723111 -36.3221504
53.4997247 -40.7561734 -36.6672054
53.1717204 -36.4413932 -35.7823223
53.2242917 -35.7863232 -35.2866054
53.3866212 -41.1996171 -37.2055657
52.8906174 -42.3336737 -39.6880955
53.7174158 -41.3374789 -36.8269645
53.0834645 -37.6884080 -36.3995247
53.2194860 -37.1462591 -36.0683575
53.6830463 -42.2407091 -38.3572131
53.6131635 -41.9184119 -37.8531851
53.2960892 -44.5734784 -40.9524702
53.2749109 -45.0047292 -41.1994718
53.2992892 -42.2513634 -39.0031897
53.1576537 -42.3927568 -39.4132957
53.3519536 -44.0363921 -40.5751243
53.4218885 -39.0131399 -36.2096168
53.1908087 -42.7559949 -39.7706777
53.5869636 -45.4028919 -41.0741754
53.4540117 -38.1611995 -36.0666402
53.4058809 -43.4267558 -40.0989316
53.6108315 -47.6925001 -41.5716060
53.8680181 -47.1005924 -41.2767455
53.4678921 -36.3964476 -35.4025811
53.7708625 -36.4324190 -35.0218080
53.8063012 -35.9123163 -34.6487574
53.4529462 -35.3584811 -34.6570425
52.8266318 -35.1608880 -35.2592543
53.1248972 -35.2643691 -34.9908210
53.8420714 -48.4689549 -41.3992144
53.4844436 -42.6200107 -39.2550863
53.5990410 -44.9368097 -40.8624224
53.8049228 -40.3071120 -36.0091329
53.9804995 -39.5713858 -35.6204286
53.7940711 -44.5540026 -40.4573902
53.7963957 -43.9965241 -40.1013829
53.6028855 -42.4715392 -38.8892815
53.6783598 -43.0958867 -39.5110659
53.6412895 -36.9629450 -35.4606658
53.9775155 -41.2567854 -36.2714157
53.9566576 -40.8122987 -35.9613635
53.3548780 -37.6491882 -36.0862240
54.1329421 -41.7775027 -36.6410911
54.1905425 -45.8078235 -40.6507589
54.2114489 -46.5585329 -40.8552140
53.5937510 -37.6019403 -35.7741006
53.9060086 -43.6231308 -39.7113524
53.8972802 -38.6530645 -35.6150456
53.9929718 -45.1310687 -40.5728444
54.1576669 -47.7995053 -41.1076434
53.9227799 -42.8415202 -38.9143862
54.2801358 -42.4406193 -37.7597176
54.3079376 -42.7890271 -38.3106731
54.3548577 -42.2016382 -37.0811336
53.8257137 -38.0585194 -35.6103703
54.0740341 -43.9691842 -39.7933535
54.2372055 -44.3551838 -39.8817137
54.7534637 -47.3436117 -40.5075960
54.2957373 -40.4665060 -35.3503898
54.0929474 -43.3666557 -39.2697193
54.3517545 -43.8827612 -39.4093357
54.2369038 -44.8263399 -40.1765704
54.3299690 -41.6136235 -35.9700695
54.6241887 -41.9890508 -36.0285714
54.5850620 -42.1536341 -36.4857279
54.6897762 -48.5677011 -40.6699292
54.3026738 -41.1905721 -35.6226638
54.4296987 -38.7949646 -34.9268056
54.5900762 -39.7317745 -34.8258503
54.2046800 -36.4571139 -34.4503596
54.1875958 -37.1229835 -34.7948857
54.5463674 -43.4121825 -38.7435742
54.1226380 -38.2151268 -35.2596715
53.9749414 -37.6435220 -35.2939852
54.7535196 -41.7522490 -35.3886634
54.6882227 -41.1001891 -34.9563174
54.2387627 -35.9232500 -34.0615362
53.8572967 -35.5613865 -34.3219079
54.4805937 -45.2716388 -40.1572026
54.9988337 -42.3566140 -36.1387990
55.0451130 -42.2135703 -35.6571861
54.5455068 -36.4336111 -33.9591652
54.5941032 -36.9437896 -34.1390409
54.6287708 -44.8337160 -39.7717804
54.7365174 -44.4021672 -39.3681750
54.3945394 -37.9215926 -34.7948819
54.8010468 -46.3740379 -40.2470939
54.6452403 -42.7993797 -37.8470868
54.8012331 -44.0066680 -38.9878452
54.7341444 -43.1061648 -38.1624699
55.0335646 -41.5973105 -34.6792229
55.1631153 -42.0503691 -35.0065343
55.0439395 -42.1000347 -35.3389233
54.8060872 -40.4403582 -34.5872752
54.7786318 -45.7441173 -40.0611088
54.6880476 -36.1409858 -33.5526317
54.4432327 -35.5962440 -33.4668197
54.0182851 -35.3955850 -33.9244083
54.6313785 -37.5274383 -34.3196616
54.9121946 -38.2442996 -34.0909511
54.9567640 -39.2040722 -34.2158228
55.3138591 -48.0749905 -40.0941744
55.4221533 -46.8301475 -39.7701710
55.5237457 -47.5207120 -39.8298502
54.9887046 -39.8875810 -34.2526995
55.0764911 -41.0466790 -34.2479609
54.9245961 -36.7177203 -33.5280560
55.0708547 -43.1019105 -37.6596339
55.0343618 -44.8463187 -39.3335186
54.9752787 -45.3121737 -39.6626666
55.0205335 -43.8613519 -38.5964699
55.0560541 -43.5045287 -38.1932780
55.2976392 -44.4559790 -38.7449414
54.8224673 -35.8845256 -33.1263542
55.0430641 -36.3099650 -33.0844633
55.2363582 -41.5376201 -34.1879725
54.9875349 -37.4178626 -33.7192081
55.1515371 -42.9128483 -37.2391604
55.2649498 -42.6410660 -36.3738537
55.3043522 -41.3109586 -33.8613577
55.1941134 -40.3806828 -33.9378938
55.2787185 -42.3136465 -35.3422835
55.5673838 -42.4140990 -34.9740274
55.3715527 -45.9723845 -39.5323485
55.6292906 -42.7072458 -35.7670784
55.3632490 -43.9531021 -38.2463038
55.1292449 -35.8543359 -32.5233974
54.7292866 -35.5357789 -32.9445675
55.3839989 -40.9138724 -33.6041413
55.4910563 -43.1836098 -37.1425375
55.5993840 -42.9714508 -36.5436636
55.3034395 -37.1109955 -33.0697708
55.1851876 -36.6817191 -33.0854431
55.4596148 -37.9740223 -33.1037156
55.3821661 -38.8861708 -33.4616192
55.4713644 -45.2334285 -39.0636809
55.5533059 -43.6595529 -37.6864038
55.4993674 -41.3408913 -33.4818102
55.3225689 -39.6935605 -33.6711854
55.7306074 -41.6782647 -33.2912281
56.0101867 -47.2505167 -39.2958187
55.9977591 -46.5411209 -39.0970521
55.8457784 -44.3081744 -37.9499421
55.5595793 -40.3095931 -33.2501270
56.0929701 -48.1246971 -39.3561348
56.0171343 -45.0309590 -38.2959433
56.0740754 -42.0984514 -33.1018157
56.2081449 -42.4918011 -33.6498953
55.7823330 -41.0665385 -32.8461714
55.4002076 -36.5953185 -32.6193869
55.9843704 -41.6857339 -32.7616930
55.7597727 -39.5082757 -32.8480192
56.5695763 -42.4957909 -32.8399464
56.3366078 -42.0193821 -32.3429666
55.7546467 -37.2884274 -32.3064886
55.9096560 -40.2811840 -32.5363055
55.8882952 -43.5978398 -37.1591896
56.0798906 -44.0191366 -37.3726226
56.7097142 -42.8333692 -33.5812271
56.0394488 -45.8059162 -38.7323722
55.7580031 -38.7019254 -32.7669531
55.9695028 -38.1758101 -32.2361626
56.1268330 -41.4817594 -32.2390236
56.0631715 -41.0722755 -32.1596228
56.0133010 -40.7195352 -32.2563760
55.8908358 -43.3510095 -36.7921293
56.0442731 -43.2405211 -36.3080874
56.2396236 -43.1544036 -35.7999206
56.1043806 -42.9448895 -35.5081037
55.5352271 -36.2709835 -32.1512148
55.7231680 -36.6647802 -32.0580788
56.3608706 -43.8158959 -36.7261022
56.6632599 -44.7325371 -37.2625440
56.4463548 -46.9911918 -38.7745388
56.5095544 -47.5242846 -38.8436131
56.1062209 -38.9635414 -32.1350135
56.1612621 -39.7122428 -32.0412032
56.5923937 -46.4319997 -38.3988433
56.7076243 -48.6813448 -38.8121344
56.8935536 -48.0518006 -38.5377742
56.6616766 -45.6624888 -37.9270948
56.4539693 -43.4995852 -36.1302681
57.0803285 -42.8772308 -32.8711681
57.0114441 -42.6702052 -32.2516896
56.9334440 -43.1303829 -34.2147909
57.3019199 -43.1707539 -33.5479192
56.7195714 -43.2027243 -34.9299759
56.3925579 -43.1119204 -35.3913642
56.8233356 -43.8635498 -36.1215584
56.9038838 -44.2819148 -36.5245342
57.0335537 -47.2332835 -38.1808430
57.2388284 -46.3966765 -37.6158543
56.7206740 -43.4696935 -35.6189907
57.2520383 -43.4655435 -34.6471407
57.1751557 -43.6496548 -35.1986624
57.2616272 -45.6123352 -37.1760800
57.3004521 -44.7418839 -36.4575498
57.3257171 -45.1554395 -36.7935374
57.3946834 -42.9133698 -32.2671831
57.2826006 -44.2870446 -35.9884724
57.1307391 -43.8746028 -35.6672220
57.5440861 -48.0115563 -37.8153138
57.3699512 -43.3775783 -34.1558643
57.7449761 -43.5250849 -33.8597186
57.9098500 -43.4430614 -33.2834311
57.7367172 -43.7265225 -34.3841277
57.8510389 -47.2550578 -37.2163765
57.5502552 -43.8093878 -34.8880291
57.5822406 -44.1467278 -35.3547074
57.8695498 -44.8561758 -35.7461758
57.6515384 -45.1712720 -36.3685787
57.8790866 -46.2198667 -36.7335565
57.8561090 -48.5769697 -37.5899710
57.6490574 -45.5433764 -36.6535485
57.9255335 -44.1185795 -34.7882435
58.1082739 -48.1623709 -37.2007713
58.0061637 -43.7780693 -34.0341590
58.2513995 -43.8030399 -33.6302556
58.2161807 -43.4643477 -32.7655859
58.0338016 -44.4943048 -35.1283439
58.2623407 -44.1211052 -34.2203490
58.3525598 -43.6577424 -33.1060924
58.0295213 -45.5870442 -36.1529514
58.5105307 -47.8045307 -36.5951024
58.4789813 -46.9778180 -36.3211073
58.2090020 -48.7849601 -37.2181423
58.2988709 -44.4741286 -34.6939042
58.4200844 -44.9179970 -35.0119136
58.5296899 -45.5616079 -35.4333557
58.2229346 -49.1510555 -37.2525789
58.5505962 -48.5444851 -36.7456898
58.4787987 -49.1507724 -36.9330086
58.4902652 -46.2114885 -35.9280184
58.7791093 -44.7722077 -34.2751183
58.7394498 -44.2760326 -33.6695574
58.7128438 -43.9608172 -33.1560634
58.6595945 -43.7136479 -32.6477215
58.9169003 -45.4066694 -34.7394422
58.9901581 -47.5921407 -35.8992368
59.0394326 -46.8145199 -35.4999118
58.9724183 -48.3135916 -36.1470245
58.9230806 -49.0634851 -36.3473557
58.8774942 -46.1477749 -35.3706852
58.9876324 -45.8572805 -35.0232832
59.0685718 -44.3183146 -33.1854671
59.1597296 -44.1221669 -32.6407887
59.2918657 -44.8064730 -33.4808603
59.4124496 -45.5091260 -34.0344310
59.0174198 -43.7747166 -32.1118757
59.2718609 -45.8813868 -34.6064754
59.2595935 -46.3241637 -34.9320881
59.3966246 -48.7850681 -35.6750861
59.3553446 -48.1130108 -35.5799608
59.4022088 -44.5349813 -32.9297222
59.4794676 -47.5545079 -35.2091789
59.5828295 -46.9298065 -34.7867757
59.6573129 -44.5333309 -32.4504524
59.5616363 -44.1633016 -31.9444574
59.7987138 -44.9896008 -32.8481048
59.7567894 -45.3749038 -33.3504565
59.6954487 -46.3510081 -34.2679322
59.8405190 -48.3374633 -34.9405855
59.7976781 -49.1259284 -35.1786092
60.0570515 -46.0565276 -33.4571190
59.9583983 -47.0015779 -34.2627838
59.9567927 -47.5642160 -34.5137827
60.1525977 -45.5783643 -32.8886248
60.2008812 -45.2839844 -32.4969627
60.0582398 -44.9140519 -32.2807953
60.2027513 -46.8056314 -33.7506719
60.2463782 -49.0410961 -34.5072076
60.4915321 -48.2040606 -33.8855572
60.5147667 -46.1314283 -32.7558778
60.5045371 -45.6895269 -32.3774219
60.2608286 -47.3842435 -33.9696109
60.5497248 -46.7055589 -33.1011228
60.5866835 -47.3714471 -33.4133990
60.7425757 -49.2884442 -33.7762870
60.9379336 -47.9001515 -33.0269411
61.1615144 -48.7811193 -32.9056159
60.8841218 -46.6431044 -32.4773528
60.8403906 -46.1570136 -32.1917236
60.9487966 -47.2620502 -32.7172242
61.3800064 -47.9106307 -32.1858563
61.2385012 -47.0737405 -32.0655629
61.5512691 -49.5682992 -32.3852450
61.7021769 -48.8608479 -31.8961740
52.6230410 -29.7954828 -33.3799087
52.6576787 -30.1552489 -32.7618010
52.7727380 -25.7332847 -38.5007076
52.8234802 -26.7724767 -37.0539166
52.8591610 -29.0739741 -33.4642567
52.8695583 -33.3007276 -32.6303728
52.8046191 -25.2881777 -38.9543176
52.6333973 -30.7620745 -32.2438292
52.9980659 -34.0889506 -33.7801278
52.9864691 -33.8263996 -33.3915167
53.0124344 -24.3331715 -39.6031402
52.8785773 -27.0422492 -36.5244597
53.2678254 -34.5549434 -33.9838676
52.9962815 -21.8182392 -42.1236567
53.1894937 -21.2413017 -42.2656015
52.9403910 -28.5890233 -33.9020081
52.9097468 -29.4309352 -32.7058174
52.9346280 -29.8920963 -31.9293030
53.2626137 -27.8092884 -33.9189358
53.1303361 -26.9296300 -35.8881615
53.2525219 -24.4792607 -38.8989896
53.0575626 -22.5923676 -41.3355865
53.1973913 -33.7676890 -32.7820852
53.0835316 -33.3197154 -32.0920907
52.9131703 -26.0845702 -37.7122909
53.1061329 -25.5691744 -37.8765389
53.1086065 -23.3654901 -40.4839329
53.2744266 -22.8346977 -40.7154337
53.1633608 -28.3688586 -33.3495550
53.2064028 -28.6394879 -32.6976664
53.1574413 -25.9898119 -37.1689722
53.0894250 -25.1582824 -38.4434983
53.2085747 -26.3967421 -36.4407785
53.2494709 -23.8188338 -39.7011153
53.2406829 -23.4962329 -40.0876142
53.2891303 -34.1860354 -33.3898813
53.5372533 -26.5472084 -35.0912400
53.5524152 -26.9398112 -34.3283936
53.2629900 -24.0991600 -39.3445268
53.2692745 -21.8787510 -41.6121595
53.5138026 -24.6887654 -37.9953831
53.5204671 -26.1798147 -35.7685760
53.4236133 -34.9861942 -34.3105420
53.5779670 -27.7161207 -32.7332206
53.4785017 -22.2118329 -40.9513563
53.5465106 -28.2132234 -31.9202505
53.2173142 -29.0251970 -31.9763012
53.4038581 -23.0572652 -40.2430631
53.5461493 -23.7296280 -39.1637385
53.9291948 -26.6823377 -33.2472771
53.5890423 -23.1962483 -39.7093743
53.6074862 -25.0798557 -37.1945724
53.7438318 -25.4364107 -36.2341739
53.6031611 -21.3095117 -41.5204689
53.6689460 -20.7571294 -41.8457799
53.1051382 -20.7047202 -42.8169407
53.4333922 -20.5230936 -42.4232781
54.0271513 -23.5552154 -38.2299535
53.6123998 -34.2496149 -32.9352841
53.5283536 -34.0037197 -32.5852260
53.5607040 -33.8319838 -32.0942514
53.7935160 -22.3592743 -40.1975699
53.6932275 -34.6305445 -33.4386192
53.7064485 -34.9811949 -33.9062586
53.6191128 -21.7278972 -41.1472693
54.0704578 -25.9298645 -34.1570266
53.9851375 -25.5677588 -35.1770669
53.9004728 -23.1451709 -39.0826017
53.7778400 -21.8601823 -40.7385640
53.7012815 -35.2509655 -34.2369452
54.0841818 -26.8450547 -32.1760811
53.9149567 -27.4213627 -31.7441113
53.9995506 -24.2376942 -37.3394452
53.9769530 -22.6828158 -39.4701138
54.1605838 -34.7523615 -32.8659005
53.8641401 -34.2456810 -32.4638151
54.0867597 -35.0920595 -33.4654339
53.8919643 -21.3624761 -40.9652777
53.9118536 -20.9191963 -41.2924066
54.1220494 -24.5106760 -36.5609676
54.0319271 -21.5864070 -40.4933356
54.1642755 -24.9946266 -35.5788320
54.1844219 -24.7357488 -35.9770767
54.3030724 -21.5540063 -39.9622135
54.2179793 -22.1513454 -39.5332053
54.3462373 -22.4870201 -38.8424806
54.3975160 -23.5829148 -37.2173712
54.3250665 -23.9595696 -36.8439592
54.5033403 -25.5373027 -33.1136398
54.4243194 -25.0913333 -34.3995541
54.5656681 -25.1294374 -33.7229222
54.4799902 -25.9679221 -32.2519615
54.3254241 -20.7422078 -40.6557992
54.4366576 -24.7726534 -34.9918604
54.6553992 -22.9430981 -37.4627970
54.6170101 -22.5703213 -38.0759276
54.5697808 -23.8058455 -36.3345109
54.4200428 -24.2739711 -36.0009000
54.4227287 -35.2297090 -33.1074409
54.6249077 -35.1969302 -32.7331088
54.5891263 -34.9134579 -32.3816836
54.2979613 -34.5399976 -32.2694592
54.5336008 -23.6243214 -36.7652439
54.4695929 -24.4439766 -35.5051160
54.6161905 -21.6117892 -39.2239690
54.8414737 -23.1106654 -36.6557837
54.7641180 -20.8150316 -39.7099629
54.7162034 -24.5027635 -34.4233178
54.7710955 -24.6330779 -33.9068584
54.7508486 -23.8484126 -35.6188491
55.0593212 -24.4486369 -33.0244303
54.9175441 -25.0580125 -32.2637372
55.0168455 -21.5851925 -38.3096300
54.9929179 -23.2602134 -35.8778462
54.8576303 -24.0211673 -34.8526090
55.0234728 -22.1904665 -37.5360735
54.9972244 -21.0132245 -39.0082672
55.0274588 -22.5362740 -37.0370001
54.8582785 -35.4706310 -32.6522402
54.8941530 -35.3078060 -32.3664695
55.0879650 -23.9874721 -33.9520425
55.1902503 -23.2603159 -35.1256020
55.3341061 -22.3055482 -36.4644080
55.2324876 -22.7332748 -36.0344611
55.3455576 -23.3194884 -34.3350209
55.3048290 -22.0249668 -37.0012671
55.7715520 -22.9933690 -33.1541859
55.6367859 -23.7743333 -31.8471156
55.3010963 -24.1550170 -32.5601622
55.2173033 -24.4699009 -32.2175995
55.5257574 -21.3628337 -37.2827984
55.3722419 -22.7593835 -35.4630910
55.6375682 -20.6641685 -37.8856063
55.3502105 -20.6610467 -38.5854244
55.6298979 -22.1807417 -35.6583335
55.8134206 -22.3288238 -34.5777273
55.6369163 -21.6291845 -36.6006047
55.6993149 -21.8028072 -36.1269638
56.0335256 -20.8819080 -36.4772789
56.0145006 -20.4823148 -37.0888561
55.9310392 -21.3324577 -36.1320972
55.9740439 -21.5137471 -35.6667154
55.9875630 -21.7471775 -35.1576135
56.3636571 -21.7568688 -33.4340259
55.8855757 -22.3283470 -34.2464671
56.2166907 -21.5135869 -34.7039215
56.4140007 -21.3871412 -34.1105163
56.5786660 -21.7493493 -32.3505327
56.2713258 -22.5808714 -31.6910110
55.7684191 -23.1681764 -32.7257812
56.2858209 -20.8356008 -35.7145742
56.2837571 -21.1663786 -35.1356715
56.5560646 -20.9067892 -34.5341302
56.6949174 -21.0865457 -33.5212201
56.8052977 -20.6971709 -33.8920541
56.8712391 -20.9949464 -32.8594595
52.8053902 -15.8340279 -45.7898676
52.9255159 -15.1717868 -45.8330624
53.1308986 -17.7693442 -44.5157960
52.9458374 -16.8827120 -45.2166907
52.9480651 -17.3341818 -45.0028591
53.2806367 -14.3259829 -45.6318110
53.0293845 -12.2368475 -46.2667309
53.4352511 -13.1701399 -45.6741937
53.0985817 -11.7033068 -46.2512523
53.2067753 -15.7670118 -45.3203432
53.4059741 -7.7810190 -45.9764749
53.2244407 -7.0545073 -46.0934788
53.3144586 -16.3192172 -44.9684560
53.3109978 -19.9200641 -43.0467241
53.2580316 -20.3030072 -42.8699441
53.2726832 -8.5908184 -46.1636335
53.3882119 -16.9195179 -44.5877165
53.6311790 -18.8862644 -43.1613177
53.5358936 -18.1115419 -43.7394604
53.5639860 -11.9000254 -45.7027927
53.4930676 -19.5276700 -43.0098288
53.4696169 -15.1412720 -45.2038348
53.7511185 -17.3176602 -43.8518561
53.7538305 -10.8602643 -45.5808379
53.8694896 -9.9542756 -45.5145910
53.8363867 -8.6282725 -45.5726124
53.7460931 -15.6394746 -44.6688756
53.5395928 -20.0240426 -42.6155254
53.5523817 -19.7442658 -42.7893363
53.9490543 -9.3181478 -45.4598106
53.6969379 -16.3012091 -44.4544628
53.6857247 -6.8094544 -45.5940291
53.7113957 -14.0539771 -45.1986678
53.7275933 -14.6880215 -45.0260341
53.8689457 -16.6407786 -44.0387353
53.8140014 -20.1592837 -42.0502424
54.0064201 -13.6246504 -44.9273475
54.1048832 -12.7030089 -44.9575670
54.1321561 -7.6318681 -45.2039391
53.7575819 -15.1306754 -44.8582023
53.8217612 -19.5437055 -42.4659289
54.1626550 -17.8972501 -42.9174900
54.2918779 -18.8056007 -42.1783701
54.0224910 -20.4499979 -41.4629132
54.1066118 -16.0646029 -43.9701267
54.0338419 -14.3581191 -44.7226837
54.0000349 -14.9869649 -44.5750058
54.3236062 -11.5887774 -44.8382273
54.2035438 -9.0152612 -45.1865979
54.5365363 -8.4632868 -44.7955728
54.3544143 -19.7035428 -41.4370261
54.2721637 -15.3724374 -44.0325215
54.4599630 -10.4745571 -44.7967313
54.4800498 -9.4571579 -44.8470712
54.3544888 -16.7503767 -43.2515740
54.3427095 -13.9745306 -44.4128662
54.3823466 -13.3168632 -44.5104390
54.4059612 -14.6451555 -44.1122353
54.6562374 -15.8005785 -43.2686694
54.6398386 -18.1542765 -42.0496464
54.8828021 -17.3640605 -42.1212874
54.7114946 -7.5254575 -44.5686430
54.5418747 -6.4672409 -44.6477123
54.8244901 -12.5384619 -44.0453589
54.6585582 -14.0779642 -43.9318195
54.6468720 -13.5402344 -44.0967530
54.8073165 -19.8718812 -40.4718034
54.7518432 -20.3713067 -40.1515700
54.7215007 -18.8640114 -41.4443836
54.6443462 -18.5597669 -41.7928435
54.7099188 -15.0968721 -43.4917547
54.9100116 -14.4434310 -43.4266888
55.0400354 -16.3514894 -42.4076468
54.9551696 -19.1505104 -40.8003516
55.0949872 -11.0311359 -43.9314358
55.1063567 -9.8738521 -44.0488271
55.1447421 -8.8624237 -44.0595560
55.0989360 -13.5298222 -43.4225388
55.1583879 -7.8984071 -44.0581553
54.8851639 -18.3472484 -41.5428728
54.9406335 -17.9112442 -41.7337641
54.9977273 -15.3399659 -42.9557972
55.1606603 -15.6952050 -42.5437130
55.1111251 -14.8779601 -42.9621153
55.4852672 -16.7764202 -41.4763056
55.0909191 -17.6826809 -41.6306928
55.3391390 -17.4941737 -41.3164385
55.1178269 -18.5164586 -41.0131887
55.0885834 -7.1084453 -44.1105179
55.0834276 -20.0106483 -39.7978947
55.2296974 -20.3334317 -39.1846783
55.6040443 -14.2019037 -42.4319878
55.3848520 -12.6406047 -43.2403944
55.5248223 -11.7654130 -43.2331339
55.3264394 -19.1653911 -40.0596894
55.3239100 -18.6729655 -40.5004025
55.1686957 -17.9917011 -41.3029380
55.7224862 -15.8279594 -41.5832847
55.4262660 -15.1630798 -42.3542783
55.7553992 -12.9851438 -42.5900631
55.6041710 -19.4139611 -39.2404608
55.5679835 -10.1605691 -43.4182100
55.7426065 -10.7932743 -43.0951007
55.5330031 -18.0029646 -40.6271480
55.7633378 -9.1865426 -43.2314910
55.5990189 -19.9982058 -38.7062654
55.6323268 -7.1683927 -43.4430316
55.2739315 -6.4700516 -43.8302495
55.6974076 -8.1673125 -43.3703959
55.6518361 -20.2745087 -38.3138135
55.5909835 -18.4728000 -40.1373766
55.8508672 -18.4484515 -39.6052673
55.7234250 -12.2947218 -42.8328887
56.0020246 -14.9371671 -41.5339880
55.7834916 -17.2460675 -40.6920612
56.0844950 -16.4912958 -40.6263880
55.8478981 -19.8596679 -38.2803269
55.9699796 -19.3386506 -38.4934992
55.9444204 -11.7936172 -42.6276848
55.9347719 -11.2609407 -42.7516550
55.8134988 -18.0617273 -40.0388390
55.9066385 -17.6415425 -40.1930846
55.8696315 -20.0948920 -37.9792564
56.1823621 -18.4951946 -38.8124585
56.2296472 -13.3219855 -41.7545475
56.3600697 -14.1207734 -41.2746072
56.0580380 -9.9250339 -42.7549295
56.0380146 -20.0917665 -37.5283584
56.1090708 -7.5337114 -42.8305045
56.1004616 -6.8488880 -42.8208262
55.8214001 -6.0847653 -43.1052186
55.9926108 -12.2855678 -42.4303263
56.2541820 -12.5075951 -41.9636033
56.2566146 -10.6611801 -42.3707962
56.2493056 -15.3971352 -40.9458131
56.2507771 -15.8544835 -40.7183357
56.1966747 -19.5029862 -37.7698392
56.2375113 -8.2480023 -42.6275171
56.4066060 -9.0071177 -42.3297137
56.0393333 -17.7998394 -39.7903994
56.2961921 -17.7111216 -39.2990150
56.2262423 -11.3538681 -42.3048139
56.2518872 -11.8798111 -42.1418548
56.1910197 -17.1973146 -39.9553664
56.4303659 -18.6804719 -38.0350091
56.5891936 -14.8333088 -40.6230018
56.3369542 -20.2265643 -36.4772864
56.4511940 -19.6765456 -36.8514843
56.5885343 -9.7783832 -41.9778749
56.4137734 -20.3674398 -36.0262841
56.3857555 -7.0782574 -42.4435511
56.4438663 -6.3256295 -42.2993414
56.4780012 -7.5793443 -42.3117429
56.7770749 -18.7067334 -37.0959491
56.4974472 -16.5661834 -39.8225114
56.5149076 -16.0430316 -40.1465185
56.5349944 -11.1138914 -41.8788157
56.7640811 -10.4967672 -41.6098423
56.8755306 -7.9236710 -41.6891947
56.6468947 -12.6478672 -41.3086377
56.7375198 -13.3395167 -40.9433953
56.5484613 -17.7435894 -38.6872701
56.5670729 -18.0938132 -38.2965654
56.5458499 -17.0207452 -39.3638648
56.5961897 -11.9031295 -41.5985882
56.5670691 -15.5114876 -40.3545611
56.4514101 -11.5237869 -41.9278629
56.6185340 -17.3027180 -38.9463976
56.6280894 -20.4780214 -35.0549296
56.6203631 -20.2040784 -35.5598703
56.7096397 -7.0399595 -41.9648513
56.9576137 -13.9652994 -40.3367393
56.8773896 -8.9771338 -41.6129753
56.6270091 -11.4462851 -41.6704975
56.6645712 -19.8205039 -35.9912142
57.0349842 -18.9429019 -36.0106155
56.8984598 -17.9060269 -37.6576856
56.9434389 -20.1613903 -34.3652517
56.8041913 -16.0929505 -39.5342112
56.7932911 -15.6751741 -39.8405306
56.7761846 -17.6444184 -38.2318087
56.7587391 -16.5455043 -39.2914005
56.8301566 -17.2364563 -38.4955406
57.1905188 -9.6670920 -41.0224907
56.8361282 -16.8267898 -38.8654210
56.9095872 -11.2742744 -41.2403196
56.8844005 -15.1752569 -39.9429612
56.9657944 -12.0486636 -40.9668796
57.0481606 -12.6699777 -40.6487808
56.9854453 -14.6271894 -40.0273427
57.1399182 -10.5417976 -40.9943126
57.0480376 -6.9946810 -41.4468572
56.9417886 -6.3236812 -41.5640585
56.9838360 -19.6329039 -35.1380184
57.1759976 -17.9429892 -36.8984230
57.2163463 -18.2511117 -36.3994986
57.1474098 -13.1899500 -40.2977988
57.1493916 -15.4211037 -39.2350964
56.9904968 -20.5813292 -33.2963839
57.0775121 -16.1891319 -38.8281234
57.2045110 -20.0028904 -33.5506499
57.0317581 -17.2698274 -37.9563868
57.1530871 -16.6675262 -38.2176898
57.3170111 -8.5497173 -40.9308039
57.1487769 -14.8492781 -39.6023281
57.2859384 -7.2151264 -41.0645232
57.4450828 -7.7012703 -40.7816246
57.4351177 -19.1968735 -34.1094397
57.2238714 -11.6155222 -40.6491011
57.3957153 -10.9932143 -40.4740535
57.1887828 -17.3359755 -37.4956019
57.2341457 -17.5484363 -37.1702500
57.2895296 -14.2521467 -39.6043882
