# 3D Systems, Inc.
# New Model
37.5407450 71.2361187 32.5530916
37.7760231 69.3573877 32.9930373
37.7571769 68.5703978 33.2012586
37.6155749 71.6959834 32.2911553
37.9236415 70.5642998 32.4607193
37.9228219 71.9568804 31.8986848
37.7063118 73.8807470 30.9547950
37.7655774 73.4519139 31.1969854
37.8466211 67.9222569 33.2144387
38.4400673 66.1623105 32.6333828
38.1507464 72.7451816 31.2856548
38.0412303 73.1574446 31.1412644
38.1297916 71.2886378 31.9980681
38.0247720 74.4705200 30.2496068
38.2383391 74.6904016 29.8988018
38.2810794 75.2468482 29.4035226
37.4955870 75.8178458 29.5941848
38.2226221 72.2786710 31.4745195
38.0976796 74.0047991 30.5249318
38.2358655 67.6104575 32.8519978
38.5630243 67.0194104 32.5137824
38.0096994 69.9048340 32.6085724
38.3427292 70.0873733 32.2342142
38.6013798 70.5671236 31.8240374
38.2202119 68.8397065 32.6999798
38.2767543 68.2209805 32.7525400
38.1315537 73.5131502 30.8315549
38.4280644 69.4290400 32.3461369
38.5270230 71.8065202 31.4199775
38.4628139 74.1646513 30.0964601
38.5068953 73.0810314 30.7692755
38.7828983 72.4512562 30.8704488
38.7586877 67.7161813 32.2797038
38.5433473 73.6143142 30.4019134
38.8548747 71.1832196 31.3683562
38.7495644 74.4846612 29.6165217
38.8025381 68.5786158 32.1387351
38.7854353 69.8859468 31.8655036
39.0190445 69.2561194 31.7977592
39.0755236 70.1711625 31.4861573
39.1920321 70.6039220 31.2349200
39.0725508 73.6863911 29.8891272
38.9810055 66.4596930 32.0383199
39.1982310 67.0026094 31.7896195
39.2508097 71.7024133 30.7866894
39.0684530 65.9005493 31.9028385
38.8651714 73.2416064 30.3545259
38.8689451 72.9144514 30.5452421
39.4475386 67.7776933 31.4764492
39.3695682 74.2044374 29.2861573
39.0915871 74.8906061 28.9927814
39.2624289 69.6361065 31.4475074
39.4109339 68.7073246 31.4592496
39.4658819 71.0121840 30.8304466
39.2188057 72.8831887 30.2394964
39.3881574 72.2657517 30.4071084
39.5295024 66.1724284 31.3482173
39.3685065 69.2044273 31.4447694
39.6393389 73.1274560 29.7132246
39.6789983 73.6547559 29.3702427
39.7345833 74.5197982 28.7000332
39.6803394 75.2576813 28.1162448
38.7821570 75.6878257 28.5708271
39.5497270 69.9967891 31.0335383
39.6253467 70.5001876 30.8208652
39.7824049 66.8527931 31.0678128
39.8096666 72.4534020 29.9011078
39.7970527 71.8612745 30.1921312
39.8444533 71.3064000 30.3481221
39.9060138 73.9858299 28.9326310
39.7142433 69.1899508 31.0317334
40.0069766 68.2031810 30.7765231
40.0224328 67.3519522 30.7754148
39.9810858 70.6434548 30.3917527
39.8913510 70.1547489 30.6207314
40.0131866 69.6220994 30.5997748
40.0332920 73.1996298 29.2821210
40.0390513 72.7760568 29.5076240
40.0198996 66.1925003 30.7147037
40.0690325 73.5766515 29.0278867
40.2050950 74.1989687 28.4616631
40.1063040 74.6487603 28.2173567
40.2508900 68.9419582 30.4195322
40.2256101 71.9057098 29.7122020
40.3199643 72.3282620 29.4158086
40.2365066 66.6679814 30.4626524
40.1581265 71.5121031 29.9475733
40.2896591 71.0249022 29.9416929
40.2189642 70.0157657 30.2706715
40.3248407 73.7187788 28.6470950
40.3624214 65.9181252 30.1924348
40.4256359 70.4244748 29.9249962
40.3990559 72.7408975 29.1158278
40.3988063 73.2173994 28.8537182
40.3675213 69.4736615 30.1989652
40.4537208 67.2776997 30.1871095
40.5597873 68.1692138 30.0664864
40.4266641 74.3917227 28.0652605
40.3810591 74.8559758 27.7274195
40.5781604 69.8101819 29.8596919
40.5166037 71.3895336 29.5562539
40.6450257 71.8172565 29.2409509
40.7362878 68.9981431 29.7748502
40.5800939 73.9338771 28.1981900
40.5243672 66.5017590 30.0302431
40.6742655 70.7863048 29.5190420
40.7175384 73.3579621 28.3703022
40.8477858 72.6769641 28.5572093
40.7319292 72.2284392 28.9535690
40.6596735 66.0753772 29.7293197
40.7403819 74.2577612 27.7613774
40.1772335 75.4267871 27.4657197
40.7372043 70.2312291 29.5618530
40.7701768 66.6660517 29.6281315
40.8430547 67.4549490 29.6232849
40.9510992 71.1684525 29.0238727
40.9597568 73.6453310 27.8755482
40.9628712 69.6906075 29.3413978
40.9373641 68.1579039 29.5441095
40.9835689 65.9157932 29.0305950
41.1732942 73.9986822 27.3316298
41.0118736 70.3948662 29.1228294
40.9714170 71.7372373 28.8301334
41.1196388 71.9931871 28.4939073
41.1466174 72.9909837 27.9703960
41.0979278 68.5743093 29.2953458
41.0747565 69.1024885 29.2834882
41.0964005 66.8955222 29.0645026
41.3775928 72.2576305 27.9456340
41.1521234 67.6736832 29.1368347
41.1491022 68.1364909 29.2212628
41.3697958 66.4713532 28.3706319
41.1985368 65.5860677 28.4615401
41.3160585 65.8626407 28.2884073
41.3074419 69.8626041 28.7565533
41.2887968 69.2996308 28.8909245
41.3869731 70.5469847 28.4770038
41.3064063 71.3537410 28.4217466
41.3429439 73.3371079 27.4917316
41.2813649 68.8132048 28.9675873
41.4218195 71.7099160 28.1122644
41.4746292 67.3525482 28.4092370
41.3572565 68.1930780 28.8102832
41.5496230 72.7204159 27.4443571
31.3559659 68.8591525 38.9392525
31.4525887 69.4387630 38.5987833
31.6118300 67.8225458 39.1383618
31.6606052 68.4115365 38.9105305
31.5127932 70.0357556 38.2300466
31.7761824 67.3809424 39.1359888
31.9757462 65.5489266 39.3396839
31.8270139 68.9960867 38.5650173
31.9643952 66.1581084 39.2618179
31.9505930 67.6127672 38.9335379
32.0431739 67.9881945 38.7561545
32.3914774 67.3471391 38.6158451
32.3708691 66.4629713 38.8235748
32.1373865 68.5657412 38.5123454
32.2748423 69.0126419 38.2375903
32.3831327 65.8588409 38.9147550
32.5246193 68.1700036 38.3133963
32.5446092 68.6840639 38.1512418
32.8872651 66.6669160 38.2949226
32.9120941 65.9549981 38.3726545
31.6037573 79.8623040 -15.2086634
31.6264629 80.3153887 -14.3929124
31.4434692 79.5538500 -15.7983396
31.5080620 75.8855864 -20.8602175
31.4972103 76.3830617 -20.3230549
31.8632573 77.2198737 -19.1105120
31.8705216 77.7883902 -18.3415283
31.8655558 76.6612962 -19.8104270
31.9187120 79.4242024 -15.8239789
32.1857296 78.9011493 -16.5230371
32.0839956 76.0678574 -20.3526542
32.4951522 77.9173300 -17.8562291
32.6512940 78.3336386 -17.1518996
32.2657526 79.6754286 -15.2655561
32.2923511 80.0407454 -14.6418242
32.1812220 76.8451244 -19.4322560
32.4591324 76.4630586 -19.7122283
32.5100385 77.4452314 -18.4984878
32.5652324 76.9273341 -19.1111136
32.6103717 79.2489424 -15.7710165
32.8282863 75.8521035 -20.1387759
32.9599157 78.7141696 -16.4080020
32.9006016 79.6432421 -14.9884354
33.0347568 77.5054917 -18.1229003
33.2459584 77.7828172 -17.5954066
33.1393480 77.0268142 -18.6466966
33.1782326 76.3723850 -19.3682704
33.4200487 78.1958327 -16.8865453
33.4305912 79.0119693 -15.6558137
33.7598696 79.5619860 -14.5919248
32.9982117 80.0883323 -14.2045366
33.4565081 75.7760555 -19.8229626
33.4626958 78.5622150 -16.3291320
33.7616056 76.5755847 -18.7400356
33.8825248 75.9690925 -19.3173401
33.6139835 77.1963000 -18.1152262
34.1230035 77.4787441 -17.3527133
34.0402275 78.3064291 -16.2826851
34.2686325 78.8689777 -15.3094772
34.2085287 76.7716393 -18.1703363
34.4229043 76.1578232 -18.6792798
34.8068029 77.6824877 -16.5531468
34.7521268 78.2764181 -15.7993529
34.6576944 76.7968521 -17.7790355
34.8976552 77.1048218 -17.2241591
34.5857032 76.4842629 -18.1955956
35.0918733 78.6274895 -15.0584569
34.5398746 79.2156830 -14.6108279
35.0168310 76.2517825 -18.0639308
35.0740254 76.7025352 -17.5476745
35.5388634 77.8094903 -15.7842077
35.4488231 77.0972520 -16.7468749
35.2432095 76.8534020 -17.2361229
35.5310477 76.4754713 -17.3701737
35.6949233 78.2493204 -15.1196290
35.7092917 78.6128417 -14.5988809
35.1529159 79.1587979 -14.2400451
35.9401926 76.6526237 -16.7967454
36.1430012 76.1222392 -17.1429496
36.1365490 77.0415515 -16.1597356
36.0237770 77.9287890 -15.2470823
36.2946093 77.5022581 -15.4830571
36.0666066 78.2132149 -14.8471817
36.4068374 76.4411613 -16.5490881
36.4658944 77.8660551 -14.8863839
36.6072543 77.0655721 -15.6652052
36.6958752 76.6470581 -16.0221066
36.6003998 75.9694725 -16.8251656
36.9788148 77.2763863 -15.0280958
36.8796214 76.1283562 -16.3609814
37.0015949 77.8816566 -14.2863533
36.3863222 78.3984214 -14.2558394
36.9559936 76.8123418 -15.5686429
37.1889174 76.3385892 -15.8102382
37.3423845 76.6849890 -15.2834626
37.7203412 76.8722668 -14.6527933
37.4723151 77.4548799 -14.2770298
37.3433866 75.7774338 -16.1912534
37.5304148 76.3066709 -15.4768024
37.5680253 75.9897381 -15.7462321
37.7038419 76.4496475 -15.1365008
37.8403887 76.0570541 -15.3815132
38.0788669 76.2947798 -14.8670552
38.2119454 75.8230314 -15.1827969
38.5341533 75.9681612 -14.6667575
38.4281017 76.5730962 -14.1574675
38.9282182 75.6957680 -14.4717712
31.4701423 82.9227939 -7.2060297
31.7614898 81.0644403 -12.7512850
31.6587910 80.6801915 -13.6530912
31.6293649 81.4138576 -11.9534507
31.6107944 81.9252431 -10.5400169
31.8764597 82.2365731 -9.5213223
31.9190063 83.3907202 -4.7214851
31.6281058 83.5645273 -3.8712064
32.0010073 81.6418752 -11.2664774
31.7991413 83.1418484 -6.1043678
32.0478454 83.2174867 -5.5939062
31.9986194 82.5572163 -8.4456084
31.7622647 83.0204934 -6.7085647
32.1149677 82.8138888 -7.4604568
32.3303826 80.4225206 -13.9510995
32.4228182 80.7380453 -13.2796690
32.4882828 81.8829760 -10.4122274
32.3344916 81.3293681 -11.9461408
32.5535163 83.0009803 -6.4121969
32.6951854 80.9965357 -12.5668300
32.6945037 82.3470950 -8.9466013
32.7309705 82.1226314 -9.6354289
32.7580422 82.5801641 -8.1351744
32.6534696 83.2244232 -5.2287434
32.5467363 83.3877027 -4.4562444
32.1967676 83.4952667 -4.0582810
32.6718353 81.5587565 -11.2207206
32.8777321 82.7523768 -7.3991669
33.2633257 81.2097862 -11.7048491
32.9280868 80.4471970 -13.6160934
33.1391096 80.6472749 -13.0767049
33.2760774 81.6369206 -10.6645403
33.1713445 81.9293037 -9.9781482
33.5470065 83.0000713 -5.7093315
33.4773511 82.7449784 -7.0023555
33.3133526 80.8625743 -12.4910623
33.4087014 82.3474601 -8.6064748
33.3638452 82.1163207 -9.3331207
33.1490971 83.3031312 -4.4983258
32.6772854 83.4882483 -3.8324604
33.4428325 82.5500414 -7.8806691
33.6734466 80.1616460 -13.6370696
33.8096209 80.5178806 -12.8362719
33.9335389 81.7653835 -9.8926397
33.7633416 80.8280632 -12.2074625
34.1295600 81.3108832 -10.8106127
34.0847038 80.9488893 -11.6618946
34.1581851 82.0434541 -8.9916438
33.9617133 82.3226348 -8.3214454
34.1105312 82.4551582 -7.6879580
34.2791639 82.6358944 -6.7539825
34.5356762 80.0154209 -13.2406261
34.4877616 80.4828256 -12.3183401
34.6638486 82.8164965 -5.5595157
33.9984074 83.1856206 -4.4033248
34.4451666 79.6432793 -13.9950570
34.6038006 81.4609900 -10.0987041
34.7602405 81.6550627 -9.5006255
34.5927514 82.1324736 -8.3492212
34.9393785 80.7595924 -11.3088014
34.9251106 81.1485052 -10.4971714
34.8593071 82.2633728 -7.6058879
34.9249020 81.8277597 -8.9112045
35.0980721 82.4381933 -6.7187897
35.5535597 82.5043097 -5.9504597
35.4191400 82.7528834 -5.0407150
34.9852256 83.0520168 -4.0908889
35.0546651 80.0186098 -12.7762072
35.3576764 80.1913217 -12.1273426
34.9787660 79.5714334 -13.7117300
35.2645852 81.2743604 -9.9113360
35.4180373 81.8179846 -8.3856527
35.2469347 79.6802938 -13.2763395
35.5482064 81.4510882 -9.2158699
35.7569605 80.7920024 -10.4669444
36.0195041 80.2536383 -11.3635249
35.6888697 82.0251182 -7.4658180
35.4893170 79.3338865 -13.6867827
35.7505642 82.2478384 -6.7075356
35.6226899 79.7531903 -12.7711780
35.8626693 78.9387971 -13.9747690
35.9381586 81.0499489 -9.7308867
35.7179679 79.4606283 -13.2491235
36.1002870 79.8118860 -12.1832667
36.2242907 82.4840963 -5.1754056
35.8892940 82.7984735 -4.2135129
35.9592997 79.1985318 -13.4734130
36.0247009 81.4308599 -8.7413033
36.1546800 81.5943256 -8.1518004
36.4146084 82.1271390 -6.2635266
36.3008790 81.1098590 -9.2071956
36.2055823 79.3803260 -12.8926868
36.1529887 82.0193067 -6.9765062
36.4806950 81.7075893 -7.4541210
36.6151072 82.5608224 -4.3004644
36.5784913 82.7782452 -3.3168632
35.7124656 83.0619261 -3.1558722
36.5305655 80.3390071 -10.6712505
36.7231183 80.6320831 -9.8180538
36.4822708 78.8833797 -13.4387482
36.6956033 79.7694102 -11.6953971
36.8534736 79.9765661 -11.1355828
36.5241580 81.8926990 -6.8897521
36.5468934 81.2369511 -8.6196763
36.7186889 79.4200078 -12.2986725
36.7526747 79.1005492 -12.8100421
36.6894267 81.3810900 -8.0777761
36.9752832 82.1494386 -5.4313145
36.8992016 82.3419541 -4.8150308
36.8345529 80.9267610 -9.0374248
37.0439775 78.3840269 -13.5724740
37.1066108 81.6508457 -6.8213041
37.1754207 81.8867981 -6.0370360
37.1027961 81.3434497 -7.6752398
37.0459147 78.7722617 -13.0120283
37.3015106 80.0188854 -10.5268154
37.1330008 82.3635384 -4.3574888
37.1217206 82.4949518 -3.7945122
37.1252969 81.0461491 -8.4191598
37.2903869 79.3344155 -11.8655600
37.1796712 79.6668306 -11.4297289
37.1999927 79.0086836 -12.4751581
37.3555943 80.6523040 -9.0906033
37.6415066 80.2126229 -9.7189760
37.3678505 79.7355026 -11.0888472
37.6037695 82.0619538 -4.7556632
37.6011394 77.8939128 -13.5875205
37.7044827 81.2068358 -7.2946735
37.8301404 81.5437064 -6.1630658
37.6868993 81.4082175 -6.7585153
37.5406183 81.0447782 -7.9410588
37.5503823 81.8753988 -5.5335970
37.5944562 78.4793496 -12.8116617
37.7402566 80.7410553 -8.4605571
37.6326926 78.8894817 -12.1878963
37.6183279 79.4255957 -11.3735693
37.8637053 79.0266693 -11.7214313
37.8146209 79.5553029 -10.8725345
38.1064080 79.6906278 -10.2104861
37.9879363 80.3559795 -9.0405717
38.0449034 77.2909001 -13.7972618
38.0525477 80.8339715 -7.8507559
38.1328166 81.6532969 -5.3421268
38.1075330 79.1554824 -11.2109631
38.1197110 81.2047720 -6.7430804
38.0810089 78.5455927 -12.1595208
38.3459553 77.8241232 -12.7861453
38.6015214 81.6483721 -4.5042490
38.0379222 82.0650756 -3.9989864
37.5028402 82.2770447 -4.0960461
38.2991768 79.9380839 -9.5090512
38.3631773 80.8935910 -7.2585610
38.3390710 79.2734474 -10.6840180
38.3677408 80.4323554 -8.4170019
38.3657105 78.7142888 -11.5673905
38.4094305 81.2173113 -6.2875161
38.4193547 81.3660324 -5.8228360
38.4733714 80.1075324 -8.9795617
38.6224836 80.5556104 -7.7743996
38.6750884 77.0428628 -13.3387698
38.6964642 80.9112787 -6.6970368
38.6890471 79.5090199 -9.7934185
38.5952480 79.3177858 -10.2535281
38.6314280 78.8547248 -10.9882932
38.7520865 81.3396871 -5.3224079
38.5782979 78.2419890 -11.9668534
38.8131700 79.7408894 -9.2239883
38.9286801 78.3406571 -11.3712437
38.7794040 79.0200084 -10.5100824
39.1623564 77.6633546 -11.9974492
38.9551856 77.2969574 -12.7106486
38.8427489 80.0154656 -8.6668897
38.8428420 80.2492723 -8.1823263
38.9647260 80.5403516 -7.2488058
38.8487689 76.0932192 -14.1738849
39.0570946 76.3906017 -13.6089614
38.9266759 81.0134858 -6.0199797
39.0258580 79.0830329 -10.0656264
39.1162559 81.2686011 -4.8662000
39.3385366 81.2945664 -4.3228259
38.6455134 81.8703845 -3.6300984
39.1841345 81.5446675 -3.7573401
39.1995870 76.7968222 -12.9969269
39.3011868 78.5552189 -10.5517553
39.1390398 80.2023634 -7.8047654
39.1951576 79.2898014 -9.4900951
39.3300131 80.5227607 -6.6569461
39.2299034 79.8940286 -8.3342064
39.2999202 80.9978545 -5.3847581
39.2444283 75.8274347 -13.9677413
39.5720415 77.9139474 -11.1479880
39.2664634 79.5710832 -8.8961385
39.3956043 77.0609006 -12.4591133
39.5355634 80.6438327 -5.9712622
39.5889767 80.0340101 -7.3974668
39.4594967 76.3560310 -13.1629538
39.4903496 76.0146752 -13.4823630
39.6166481 80.9893832 -4.7780890
39.5198986 78.8308308 -9.8205302
39.5542644 79.7944888 -8.0034537
39.6553464 77.1480054 -12.0413350
39.8928076 77.3312747 -11.5228062
39.7299603 79.0375844 -9.1797980
39.6820568 79.4356093 -8.5171834
39.6397598 76.5638575 -12.7192661
40.0935858 77.9542550 -10.4401167
39.8355313 78.4439221 -10.0385193
39.8846567 80.6319565 -5.3354264
39.7638045 80.3180411 -6.4210817
39.8025960 80.1056400 -6.8671382
39.7738442 76.7949894 -12.3048192
40.0543511 80.2810341 -5.9903697
39.8705527 76.0062039 -13.0208582
40.0948040 79.3660730 -7.9819281
40.0569886 76.8210292 -11.9262813
40.0585458 77.6001215 -10.9793767
39.9347618 78.6300600 -9.6075553
40.2932055 80.6322694 -4.4958312
39.8182757 81.0254291 -4.2428854
40.1898883 79.6447545 -7.2518839
40.1129499 76.3293579 -12.3826088
40.1441157 79.9709558 -6.6005592
40.1525982 78.9597183 -8.6901924
40.2450003 78.5969794 -9.2288638
40.3978676 77.2281289 -11.0338628
40.3280742 76.9018382 -11.5057975
40.2635932 78.2731548 -9.7494731
40.5833758 80.1408216 -5.3801015
40.2912311 75.8318081 -12.6677025
40.5229367 79.8696876 -6.2041585
40.3083004 77.5593743 -10.7276523
40.5919552 79.5463324 -6.8265689
40.5458920 76.3828084 -11.7851952
40.5613221 75.8951828 -12.2587411
40.5014679 78.8559467 -8.3380211
40.4057615 79.2896003 -7.6441918
40.6327695 78.9875239 -7.8795459
40.6822823 77.8228119 -9.8544089
40.6518206 77.4292871 -10.4388501
40.6175442 78.5320476 -8.7773167
40.6714045 79.2159811 -7.3792688
40.6959876 78.1753287 -9.2900442
40.8270285 80.2241191 -4.6416270
40.9264416 80.3333148 -4.0463209
40.1352718 80.9348673 -3.8547001
40.5659042 80.6808174 -3.7193296
40.7158062 76.7170787 -11.2130037
40.8058055 76.9982487 -10.7711982
40.8957601 79.7227919 -5.9275511
40.9643054 79.4480890 -6.4460454
40.9869999 78.5231367 -8.1970226
41.1380045 79.9037442 -4.9442756
41.1682874 79.6838850 -5.5121710
41.0833359 78.1272724 -8.7583670
40.9272835 75.8029744 -11.8717188
41.0773307 76.1451498 -11.3069769
40.8335812 75.5373836 -12.2615183
41.0902351 77.3625001 -9.9003427
41.1438197 76.9709647 -10.3022503
41.0747193 78.7942410 -7.5578978
41.0524905 79.1094750 -6.9990684
41.1528535 76.5430331 -10.7730739
41.1974005 77.6614845 -9.3028592
41.1930904 80.0305828 -4.4167540
41.3193144 79.3492943 -6.0448349
41.1202647 75.2946511 -12.1081751
41.3797610 75.4908845 -11.5285525
41.4204672 79.0138394 -6.5818257
41.4475687 78.0881941 -8.2103191
41.4842814 78.3649758 -7.6563093
41.4797105 76.4904320 -10.3168925
41.3159877 77.0694688 -9.9276556
41.5206067 76.7808408 -9.9252658
41.7422093 75.7913813 -10.6312260
41.5195189 77.7291805 -8.6654061
41.4866768 78.6773637 -7.1030431
41.4616242 74.9346614 -11.9436588
31.5679014 83.6729407 -3.2393988
31.8670422 84.6495032 5.5061756
31.7340493 84.0737596 -0.1264653
32.1113206 84.2514262 1.3606615
31.9595374 84.1549933 0.5450649
31.9423936 83.7260857 -2.7080437
32.1638733 83.8335231 -1.8093161
31.8305269 84.4640955 3.0251406
32.2748162 84.3754336 2.3846535
31.9851376 84.5256969 3.6969888
31.9053754 84.6045241 4.7846506
32.1638286 84.5657215 4.2870743
32.1136564 83.6027116 -3.4694842
32.5808525 83.9349329 -0.8433293
32.4508101 84.0664506 0.0475234
32.6634794 84.5668018 4.7579133
32.8535400 84.6153796 5.7209712
32.0497938 84.7079605 6.3192900
32.5876176 83.6072490 -3.1799409
32.7868387 83.6854577 -2.5351155
32.5098187 84.4562650 3.1387683
32.7801630 84.5030621 3.8388737
32.5692482 84.1352567 0.6052575
32.9321548 84.2596218 1.7540203
32.9135209 84.1628611 0.9900681
33.0246799 84.3588933 2.5747158
32.9967402 83.7795511 -1.7674558
33.0902077 84.4291002 3.2006751
33.3176143 84.0028450 0.0760702
33.7625295 83.7733299 -1.2729823
33.3237164 83.4787413 -3.4104844
33.4923454 84.4614878 4.2133993
33.4339887 84.4252035 3.5259537
33.4499851 84.5130607 4.9837027
33.7293968 84.5206529 5.5708662
33.4426686 84.6215785 6.4567770
32.6643176 84.6956149 6.5247831
33.5599221 84.1216668 1.1250817
33.6487591 84.2260942 2.0156750
33.6036570 83.6226866 -2.3671815
33.6380899 84.3318701 2.8641713
34.2580304 83.9494690 0.5045244
34.2901312 83.8127062 -0.5171017
34.4310440 84.3552649 4.6985587
34.0929106 84.3266323 3.5002471
34.3118794 83.3820030 -3.1141955
34.3145840 83.5735649 -2.0939820
34.2103429 84.0755180 1.4111038
34.4001502 84.4593719 6.0466467
34.4749242 84.1440558 2.3563455
34.4530866 83.6551636 -1.5003808
34.3711376 83.7265775 -1.1140964
35.0116231 84.1533691 3.3964273
35.0622572 83.8882476 1.1171814
35.5701894 84.2031464 5.6650783
35.0471660 84.4169483 6.9085700
34.1082476 84.5861211 7.0197904
34.8125733 83.4266841 -2.4131124
34.8111279 83.5329518 -1.8378687
35.0171737 83.7406367 -0.1059676
34.8920450 83.6251900 -1.1319870
35.0612961 83.2631886 -2.9687185
35.5947129 84.1047466 4.2865905
35.6049091 83.9176029 2.3052674
35.4645140 83.3492875 -1.9925507
35.6875658 83.4953040 -0.7844482
35.8113758 83.9826614 3.3382929
35.8273201 83.6132914 0.2787199
36.0018983 83.7032273 1.2589194
36.3740027 83.9455873 4.7950619
36.5005732 83.9677826 5.6497487
36.2929516 84.0701014 6.2592239
35.8319506 84.2243955 6.6634989
36.3661200 83.0578580 -2.2437715
36.2448767 83.2602605 -1.3379377
36.5034975 83.7561488 2.9277464
36.3377109 83.7045461 1.9635921
36.2855047 83.9072913 3.8735159
36.5896709 83.3152309 -0.3673791
36.5923345 83.4669471 0.6856093
36.6145819 83.5617334 1.4234224
37.0600969 83.6830661 4.0744678
37.1140987 83.7488100 5.2158674
36.9736552 83.5270435 2.1003578
37.0452069 83.0188096 -1.3224235
37.1354856 82.7978700 -2.3379028
37.3631455 82.5640932 -3.0759920
37.3650342 83.1766725 0.3525460
37.2164436 83.3485499 1.2882700
37.3897664 83.4797472 3.0324801
37.0682068 83.8264003 6.2731076
37.3456590 83.0679387 -0.4618115
37.6835018 82.3288187 -3.5701017
37.8020890 83.2367986 2.1603473
37.6648828 82.7350616 -1.7044857
37.8943868 82.7946365 -0.9060982
37.8128588 82.5419426 -2.3841108
37.9532315 82.3519528 -3.0093757
38.0271636 83.0321163 1.1134273
37.7032794 83.5076869 4.7901962
37.9089303 83.3621621 3.9654765
37.8175154 83.5142657 5.6910221
37.8158279 82.9473510 -0.1722395
38.0390100 82.9315409 0.3215159
38.0643345 83.2298324 3.1221462
38.4227894 82.6869160 -0.2741881
38.3605510 82.4668482 -1.6218633
38.2112078 82.1484402 -3.3871948
38.3769423 82.2737440 -2.5280723
38.3023769 82.2062045 -3.0020725
38.4715907 83.1860527 5.0199898
38.4443067 82.9507113 1.8737045
38.5457501 82.9844400 2.7065603
38.6969149 83.0054507 3.8328427
38.4578779 82.5679600 -0.9071402
38.5820754 82.7350169 0.5154106
38.7948789 82.7325433 1.2634962
38.5199375 83.2178295 6.2266970
37.8471799 83.5415795 6.6049490
38.6465304 82.0439979 -2.9691695
39.1092710 82.0105597 -2.0795274
39.0159376 82.3104680 -0.8548950
39.0701853 82.6901421 2.1321119
39.2432101 82.6918110 3.1530573
39.0225016 82.4607983 0.0144141
39.2800830 82.7749744 4.8094927
39.2370969 82.8291327 5.7961703
39.1544141 82.4880823 0.6304074
39.1614251 81.7508325 -3.0456751
39.3969715 82.6788843 4.0361248
39.4861475 82.3996216 1.3097661
39.8450457 82.0323303 0.0709802
39.6927632 81.8969533 -1.1929597
39.6938138 81.5696940 -2.5597757
39.7641957 81.7073360 -1.8782787
39.6120995 81.4398527 -3.2341254
39.7252217 81.2261924 -3.7495857
39.9351008 82.2632164 2.4777486
39.8880653 82.3899657 3.6761696
39.9277024 82.4205950 5.4578013
39.9073698 82.4236348 6.3813492
39.1991735 82.8612745 6.8544378
39.9333686 82.4059024 4.5897127
40.1189625 82.0423365 1.2924290
40.2447283 81.0719132 -3.0836812
40.1952341 81.3611746 -2.1482804
40.0968716 81.5859437 -1.5363554
40.2608179 81.6093460 -0.9317253
40.5810848 81.2296122 -1.6046951
40.3495990 82.1006969 3.4035663
40.5494869 82.0015073 4.2130002
40.6079926 81.6662759 0.7463286
40.5621864 81.5307349 -0.3306445
40.4541157 81.6945583 0.1310677
40.7443941 81.7077160 1.8636269
40.6711772 81.8451941 2.8754806
40.5638851 81.9981620 5.1484318
40.5477807 81.9808319 5.9881508
40.7602787 80.9067041 -2.3445867
40.7901444 81.2319741 -0.9565321
41.1677510 80.4035217 -3.1476081
40.7664850 81.8309858 3.5832333
40.8087559 81.4434141 0.1422045
40.9654379 80.9842125 -1.4197864
40.9899093 80.8572471 -1.8466585
41.1093086 81.5426558 5.7392009
40.5246243 81.9475129 6.9120033
41.0635844 81.5100670 6.5397695
41.1954373 81.5085545 4.8556449
41.1397740 81.5544650 3.9568036
41.2199609 81.0168907 -0.3217843
41.0862863 81.3896134 1.2360082
41.2038229 81.1939985 0.5836695
41.1286019 81.4981684 2.5036037
41.1314145 81.5325826 3.2279142
41.2354730 81.3457966 1.7089539
41.1686078 81.4416558 2.0455227
41.1639288 80.9118226 -1.0518807
41.2968732 80.5308670 -2.2182921
41.4455421 79.9777508 -3.9238096
41.2972197 80.6814134 -1.5563258
41.5894464 80.9803754 1.3338975
31.4531401 84.7780555 6.8952776
31.6969343 84.4241083 15.2439410
32.0235826 84.7726837 12.9132513
31.9463909 84.5705867 14.4295841
32.1650580 84.6790671 13.7635740
31.6962563 84.3003392 15.9334540
31.9487639 84.2160434 16.3253155
31.9744572 84.1079950 16.7774186
31.9938287 84.8721042 10.0534735
32.1218632 84.8595798 10.7190935
32.0989974 84.7711563 7.0527215
32.2289020 84.8197863 7.8040939
32.2286226 84.8646685 9.3267784
32.1981423 84.8480314 11.4599904
32.3990770 84.8140568 12.1750236
32.5335711 84.8362371 8.5023968
32.2531089 84.2865333 15.9071665
32.5501934 84.4076350 15.2344638
32.8859836 84.8230720 10.0731757
32.7505544 84.5524296 14.4123547
32.8062661 84.6689418 13.5481264
32.3827676 84.1502249 16.5019818
32.7741466 84.7454742 12.7973128
32.8173041 84.7375095 7.1383184
32.7957384 84.8166496 11.0269142
32.7517726 84.8084688 11.6704972
33.0315679 84.8163962 9.0723280
32.9948403 84.7727954 7.8163650
33.0831483 84.7483873 12.2347511
33.2026929 84.7862512 8.3873756
33.0325179 84.1625333 16.2006598
32.6022357 83.9327797 17.2684751
33.3348885 84.7492889 11.5671605
33.3811194 84.3448937 15.2241960
33.5884243 84.6152008 13.0926091
33.5131176 84.4953582 14.2540988
33.5478038 84.7523287 10.8437352
33.7108560 84.7667828 9.5139258
33.7862186 84.7534910 10.2062710
33.4345959 84.6915990 7.2522066
33.7729380 84.6977979 7.8722630
33.7478593 84.7474188 8.7132482
33.6704105 84.6752450 12.1822115
34.0455621 84.0859488 16.0423145
33.7847471 83.8527530 17.1314925
34.1577679 84.6375376 11.6125951
34.1951139 84.2704475 15.0475707
34.2781618 84.4085887 14.0309567
34.3362354 84.6692398 10.7157193
34.1706127 84.5793337 12.4743702
34.4180800 84.4811574 13.1437117
34.4173759 84.6837014 9.1227014
34.4351716 84.6424922 8.3260825
34.4871543 84.6805647 9.9368822
34.4970934 84.5788419 7.6068081
35.0263193 84.4324008 12.3490542
34.9577032 84.0129703 15.6947020
34.8987877 84.2022523 14.7257680
34.9785462 84.5273584 11.2339137
34.7613208 83.8173255 16.7135894
35.0826681 84.2989162 13.6913396
35.0186117 84.5724121 10.4597099
35.0749120 84.5804513 9.5002828
35.0611396 84.5889524 9.9930875
35.0923501 84.5495984 8.7237488
35.1047367 84.4920203 7.8935828
35.4558043 84.1242969 14.4735370
35.4317203 84.0324685 15.0915654
35.8487032 84.2027590 13.0125834
35.7696190 84.1219723 13.9308982
35.6885009 83.8825852 15.5567117
35.5925560 83.7475732 16.2909888
35.7006900 84.3454301 11.4520900
35.8870775 84.2604190 12.1458434
35.7803293 84.2984840 7.4548577
35.5230719 84.4354704 10.7724657
35.5912223 84.4447538 10.0381076
35.7342698 84.4027773 9.1786003
35.7712097 84.3603909 8.3267903
36.1335650 83.9046314 14.7350607
36.2971723 83.6766437 15.7287139
36.3525562 83.4596530 16.6634377
35.4914553 83.5619345 17.1892010
36.1521989 84.2505693 10.6582753
36.3448709 84.2059404 9.7421017
36.4200100 84.1754600 8.8409334
36.5162008 84.1008648 11.5548568
36.4835486 84.1175988 7.9326583
36.3930762 83.9887038 13.6714540
36.3575183 84.1216221 12.3888645
36.5354158 84.0302855 12.9290102
36.4629924 84.0705484 7.0068538
36.9962826 83.5802779 15.0594218
37.0072052 83.7275535 14.1595043
37.0209329 83.9419290 10.4650808
37.0342731 83.3949745 15.9192588
37.0710231 83.2433924 16.5813211
36.9036123 83.1432343 17.2971934
36.1588672 83.3044052 17.5997969
37.0366536 83.8934630 12.3598669
37.3417139 83.7744027 7.4536656
37.0772369 83.8137269 13.2704237
36.9595438 83.9799121 9.4288914
37.1581949 83.8877410 8.5990354
37.3581573 83.7969854 11.4941131
37.7210118 83.0638036 16.2163526
37.4385454 83.0404907 16.8638509
37.8322825 83.2155868 15.2556654
37.7496332 83.6355239 9.6348701
37.6071371 83.4548324 14.4952051
37.7007090 83.6017057 12.8261857
37.6653746 83.6568698 12.1217333
37.7140976 83.5162997 13.7071498
37.9752107 83.5242495 8.4383637
38.3945629 83.3015740 7.4005425
37.8759243 83.5782439 10.8676534
37.9342549 83.5498795 11.6552254
38.3430980 83.1509531 14.2605929
38.3553915 83.2654983 13.1829558
38.2088684 83.3966359 12.2855520
38.5035053 82.8070492 15.7516301
38.3091867 82.7663094 16.3852647
37.9526988 82.8320831 16.8225113
38.6092030 83.2080543 10.4533527
38.5449715 83.2415000 9.2472332
38.5726243 82.9193890 15.0216352
38.4560861 83.2928419 11.5064103
38.6338346 83.1944048 8.3649633
38.9724374 82.9806328 12.3626953
38.9454328 82.4459568 16.3364895
38.4580940 82.6000720 16.8012865
38.9882177 82.8952491 13.5402000
39.0079990 82.6480761 15.2270058
39.1626991 82.4704543 15.6712011
39.1359925 82.6938823 14.4678596
38.9898233 83.0011815 11.3461493
39.2002426 82.8541070 9.7215222
39.0618294 82.9447657 8.8250116
39.1596444 82.8826800 7.9428228
39.3490978 82.7671736 10.7378503
39.6782048 82.1141750 15.8226825
39.6002978 81.9942206 16.5843423
38.8719104 82.2819322 17.1866287
39.6337546 82.2894499 15.0280129
39.4762233 82.6888680 11.6071803
39.4987762 82.6208740 13.0433245
39.4808650 82.5733542 13.7675507
39.6338627 82.5686976 12.3029063
39.7600904 82.4662447 8.8295126
39.7937968 82.3010132 14.1897518
39.8663543 82.4222490 7.4665570
39.8663245 82.3858976 10.1294667
39.9130955 82.3607445 11.0787209
39.9210677 82.2758749 13.4644546
39.9636291 82.2917223 12.7443438
39.9490558 82.3360607 11.8228812
39.9506241 82.3327452 12.2722853
40.3207466 81.6178396 16.0190873
40.0952771 81.6120654 16.7930834
39.5714343 81.8375349 17.3058733
40.2481593 81.8307549 15.1699409
40.2251482 81.9451138 14.4437226
40.5717343 81.8421841 8.1192134
40.5911542 81.7718133 9.6331164
40.2282178 82.0003152 13.8337063
40.3707325 81.9740817 10.6568290
40.5322276 81.7669928 13.1157506
40.4252298 81.9194987 11.4624780
40.2940139 82.0252448 12.2456346
40.5740514 81.6957951 13.9310425
40.9582183 81.3889876 12.0276548
40.7541580 81.4166293 15.2185168
40.9817100 81.0987651 15.8987679
40.6882577 81.1645538 16.7636592
40.6792387 81.5590844 14.5148626
40.9977026 81.3713893 10.8474949
41.1180258 81.2894776 8.7906746
41.3964503 80.9450969 9.9097360
41.0266444 81.4715549 7.4092634
41.0354622 81.4227536 8.0560874
41.1299020 81.1606720 13.8210617
41.1894917 81.1377764 12.8553109
41.0581455 81.1941996 14.6590825
41.1862098 81.0120776 15.2158486
41.5492207 80.7582885 11.3796024
41.6354798 80.6346536 12.2534586
41.5900648 80.6022435 14.6732330
41.3090140 80.6619376 16.5911093
41.6068025 80.4813728 15.7545470
41.3619243 81.0740963 8.0288546
41.4486378 81.0554922 7.1764290
41.6835807 80.5729628 13.1330220
41.7581126 80.4608166 13.8617959
31.4547643 83.5590139 18.8014153
31.5344594 80.8226168 26.5988186
31.9636203 83.7567076 18.0695113
31.8794698 81.5023407 24.9139313
31.7960382 81.1239555 25.8262362
31.9203101 81.8928778 23.9460226
32.1184993 82.4712366 22.1899580
32.2340652 82.1826085 23.0354890
32.4610136 82.8918070 20.7269210
32.5315855 82.6016441 21.6191951
32.3853232 83.4524930 18.9772099
32.3712453 80.7349682 26.5246388
31.9035873 80.4549456 27.3244791
32.5210243 83.2167119 19.6970794
32.4762091 83.0826834 20.1320685
32.7394195 81.1255202 25.4647098
32.5450823 81.5606266 24.5417282
32.7049196 83.6673900 18.1982741
32.7600762 81.8229169 23.7951558
32.8444429 82.3006332 22.4325638
32.9421721 82.0386857 23.1485497
33.0638811 83.2404345 19.4836892
33.2335234 83.4539160 18.7586267
33.1301279 82.6641172 21.2059729
33.1544280 82.4478716 21.8490735
33.3972238 80.5773512 26.3630655
32.8204036 80.2937970 27.2887833
32.7292979 82.9971433 20.3405600
32.9006203 83.0800459 20.0318340
33.0948010 82.8931853 20.5362011
33.4016159 81.4236850 24.4526640
33.3870016 83.6757198 17.9643426
33.7854885 80.9461400 25.3352355
33.4400423 81.7959905 23.5347487
33.5493460 82.2057649 22.3643221
33.3565772 82.0509866 22.9052883
33.5220248 82.9923078 20.0936906
33.7257944 82.4088678 21.6953121
33.8404179 82.6712698 20.8979342
33.8213705 83.1852853 19.4181036
34.0785421 83.4325701 18.5479037
33.9650959 83.6466104 17.8592131
34.1281071 81.5597400 23.7334799
34.3332663 81.1801404 24.4921464
34.1519900 80.5972517 25.8789361
34.2115648 80.2616626 26.5129171
33.7242633 80.0402984 27.2443481
33.9152552 81.9027647 22.9950994
34.3950577 82.8313604 20.2220641
34.2269652 82.0944980 22.3067608
34.6359983 83.5801512 17.7471284
34.4230235 82.3299959 21.5695556
34.5680751 82.5328007 20.9618229
34.6355401 83.1009820 19.3705149
34.6900970 80.7642117 25.1640826
34.9336043 83.2933635 18.6382011
34.6434303 81.7382112 22.9848884
34.7198583 80.3908855 25.9098504
34.7994901 80.0785720 26.4416765
34.5644318 79.8060969 27.0803645
34.8985828 81.3633204 23.7260982
35.0000486 81.9864050 22.1356302
35.0291580 81.0315087 24.3775975
35.1179279 82.2809711 21.3218294
35.0253843 82.5510398 20.6865184
35.3094190 82.7574730 19.9873913
35.4738161 83.3534524 18.0603862
35.2833420 83.0433518 19.2377307
35.2263227 80.4451779 25.4228022
35.2926925 80.1130235 25.9917323
35.5849750 80.6882530 24.6725995
35.2709815 79.7479525 26.6443528
35.5566368 81.5451741 22.8451248
35.5542339 83.1488892 18.7433269
35.5973095 81.1200067 23.7878170
35.9425358 81.9329545 21.6293186
35.6935263 82.3700726 20.7455456
35.9035097 79.7390714 26.1357576
35.8102396 79.4015303 26.7715100
35.2690443 79.2804211 27.3936745
35.8491540 80.1878422 25.4007746
35.9936841 82.8568786 19.2647893
36.0838585 82.5375319 20.0569723
36.1099280 83.1098855 18.3950849
36.2879895 80.8100402 23.9012260
36.4187211 80.3259984 24.7005057
36.1794978 81.1912641 23.1961403
36.5319997 81.4256072 22.3666281
36.6170369 82.1777955 20.5190144
36.9945094 81.6963091 21.3398281
36.6821028 79.7054917 25.5344026
36.4913829 79.2124346 26.4888871
36.0767134 79.0005103 27.1704402
36.7409661 82.5151131 19.5570216
36.8141383 82.8130394 18.6305791
36.6278477 83.0758736 17.9794896
36.8949063 80.9436217 23.1278334
37.0880738 80.4272741 23.9957739
37.1095911 79.9731314 24.7606467
37.5753008 81.1038464 22.1430641
37.2562744 79.0629983 26.0636304
37.8090218 79.3138072 25.2204910
36.6074815 78.7866339 27.0387493
37.0626897 78.7438229 26.7065465
37.2839384 82.2209120 19.8090281
37.4818221 81.8925276 20.4304159
36.9651616 78.3597082 27.3240041
36.3963358 78.5969272 27.4868198
37.5567041 82.4064463 18.9752020
37.0954312 82.9242319 17.9295801
37.4734402 82.6857761 18.2199944
37.7342105 80.5073157 23.2796203
37.6164727 82.8174129 17.4888838
37.6841091 79.9352750 24.3694633
37.6384296 80.2502558 23.8833837
37.5579819 78.6323473 26.4386758
37.5031270 78.3330128 26.8981159
37.7775840 81.4893246 21.0895427
37.9788913 78.6849037 25.9968918
37.9438736 82.0013061 19.6553133
38.2584371 82.3620707 18.0721302
38.0412340 78.2379285 26.5476480
37.9476175 77.8795332 27.0817988
37.4745764 78.0315995 27.3142233
38.2263027 82.5972930 17.2697324
38.2382758 81.5805271 20.3849580
38.3054353 82.0757300 18.9630985
38.6419781 80.9633732 21.3740841
38.4885781 80.4664418 22.6179957
38.1154194 80.0224990 23.8595009
38.4671688 79.4716552 24.4434513
38.3923426 80.1615417 23.3459380
38.6172086 78.6123201 25.5551748
38.7589596 78.9491013 24.9696504
38.6599936 77.6204839 26.7486591
38.2593982 77.3044676 27.4564102
37.7192795 77.6721388 27.5281891
38.6339724 78.1597644 26.1312276
38.7558565 81.6326290 19.5855033
38.7948640 79.7272921 23.7345509
38.9043204 81.2358111 20.4411596
39.0066244 81.8154290 18.6245050
39.0518866 82.0114464 17.8532731
38.8064235 80.0350904 23.1771953
39.1545072 80.3375915 22.1884176
39.1446836 80.0312385 22.8255875
38.9506035 79.0963396 24.5959070
39.1380154 79.2195648 24.2202301
39.0557423 80.9858292 20.8788645
39.3791907 80.6999281 21.1359058
39.3736735 80.4731548 21.6509495
39.2453596 77.6598528 26.1865146
39.3153504 77.2145763 26.6105030
39.0583724 76.8478364 27.2197258
39.2055251 78.1060383 25.7048942
39.2395891 78.4618258 25.2219476
39.3705331 78.7539929 24.6869791
39.4675210 81.1049342 19.9653096
39.4034125 80.9091255 20.6051879
39.1721465 79.7622129 23.3051479
39.4195020 79.3936402 23.6631352
39.4704975 81.3539922 19.2349833
39.6129750 81.6243812 18.0108082
39.6731868 81.4122930 18.6325051
39.5510234 79.9533501 22.5378312
39.6567509 79.6155110 23.0364967
39.7294536 80.0878033 22.0554359
39.7797935 78.8513497 24.1057426
39.7229567 77.6905566 25.7034451
39.6168977 78.0840144 25.3571197
39.8104340 77.1476328 26.1976868
39.6734439 78.3112198 25.0056721
39.6688953 76.7684579 26.7348271
39.9668105 80.2296922 21.4242861
39.9797298 79.1452825 23.4491825
39.8906954 80.5353150 20.8126530
39.8118235 80.7563961 20.3705393
39.9055183 78.3846751 24.6487278
39.8823917 80.9888393 19.5507966
40.0789194 80.7151794 19.9731607
40.0550179 81.0299814 19.0334097
40.1640125 81.4035162 17.4099952
40.2650163 81.1038241 18.2380173
40.0017537 79.7115192 22.4653240
40.0439240 76.6537413 26.4621302
40.0011018 76.3059929 26.8481951
39.6069549 76.3880759 27.1685906
40.2890369 79.2835578 22.8416398
40.0731750 77.8901428 25.1010247
40.2599648 77.2451907 25.6099794
40.2654856 78.3290491 24.2975838
40.4086709 78.6261559 23.6956477
40.2520001 79.8162669 21.9241269
40.2211659 80.4731026 20.4034653
40.5269228 80.1009983 20.8035503
40.3028093 76.7251030 26.0953717
40.3043851 80.7057843 19.5131339
40.2051136 78.1163499 24.6720240
40.3608792 76.2508810 26.4956634
40.3062478 75.8129954 26.9738324
39.8635939 75.8914202 27.3754206
40.3888449 78.9795741 23.2264008
40.5294821 79.8474252 21.4210376
40.7022536 80.5515498 19.0287624
40.7182388 80.2568570 19.9643765
40.4634960 79.4586390 22.2887415
40.5567363 77.8089836 24.6133767
40.5234769 77.4389133 25.0928700
40.7509618 78.0587569 24.0411330
40.6594425 80.9949562 17.5421294
40.6087860 76.7341256 25.7189199
40.7783650 76.9530982 25.2772868
40.7825261 79.4460401 21.7898376
40.9447886 80.6029961 18.1572717
40.5914672 78.9919123 22.9191463
40.9891345 78.8605809 22.4367082
40.7354720 76.2235001 26.0572769
40.7683849 78.6648765 23.1456924
40.9787260 78.1767592 23.5486738
40.9522839 77.2131160 24.7751735
41.0666429 79.5412660 21.0894886
41.0844944 79.8008144 20.4690024
41.0674922 77.5235891 24.2797527
41.0121903 76.4068738 25.5079679
41.3924530 78.9492205 21.5675440
41.1378257 80.6437358 17.3737668
41.1820188 80.0486878 19.4779523
41.3109995 80.1228508 18.8308153
41.3120799 76.5663013 24.9175448
40.9875363 75.7741928 26.1620320
41.2199125 75.8576170 25.7365089
41.3618609 79.7285065 20.0132299
41.2732325 78.2027021 23.0046399
41.1601849 77.7580142 23.8681734
41.2478633 75.5374804 26.0016806
41.3497202 76.9998506 24.4455338
41.4619967 77.6491389 23.4942976
41.4991826 80.1455379 18.0755965
41.4732620 79.4093758 20.5654893
41.5121987 79.1380480 21.0307147
41.5719934 78.1686679 22.4919952
41.6768529 78.3663243 21.9694581
41.3973555 76.0623738 25.2829846
41.4474942 77.2644281 24.0161493
41.3983762 75.1767159 26.0769036
31.6578560 77.4577633 31.9952331
31.8315104 76.5880495 32.9144709
31.8701454 78.1432018 31.1126579
31.9895074 78.6280930 30.4241627
32.1401842 79.0173039 29.8030805
32.2665647 79.9968392 28.1312242
32.1187861 79.6429589 28.8496502
32.4040055 77.0086199 32.2471969
32.4608795 76.4026865 32.8776427
32.3284827 79.3249831 29.2641316
32.3374681 77.6155367 31.5771438
32.5666182 78.0467689 30.9301354
32.7022411 78.5034373 30.2496869
32.9406299 78.9051205 29.5526404
32.9000838 75.9628490 33.0938734
32.9463407 79.4649944 28.7043210
33.1924111 79.8589066 27.9160794
33.1125036 76.5485764 32.3893279
33.0719799 77.3525983 31.5144919
33.2504287 77.9590607 30.6697190
33.2782418 78.3914775 30.0823301
33.7091088 78.9169744 29.0722456
34.1897607 79.3303773 28.1148646
33.6083211 78.5290822 29.6901483
33.4216282 75.9743825 32.7898972
33.8108167 76.7970234 31.6906422
33.8446163 77.4571076 30.9184212
33.8029042 76.1805773 32.3430412
33.7980315 78.0497640 30.2150473
33.8956378 75.6404400 32.7869169
34.3077816 78.2679319 29.5749195
34.3603194 78.7623003 28.8721379
34.3583003 76.2481093 31.8750516
34.6007571 76.9018307 31.0003925
34.2438743 75.8014917 32.3924981
34.3137644 77.6606202 30.3466860
34.8882824 78.6835849 28.5947639
35.1547934 78.8895935 28.0827004
34.8924473 77.5505379 30.0337654
34.7620584 78.4149468 29.0725529
34.9933058 78.0080482 29.4111781
34.9131599 76.1418343 31.5531604
35.3680924 76.8508092 30.4388516
35.1883397 76.4170662 31.0580246
35.1855718 75.6852180 31.7595787
35.2767184 78.1789199 28.9782118
35.7167758 77.4833634 29.4407420
35.6163159 78.3619732 28.4589268
35.3820510 75.9487748 31.3564204
35.8320475 78.7123367 27.7905967
35.6701091 76.2047544 30.8534261
35.6638953 77.9895186 28.9076678
36.1153968 76.4763355 30.1787034
35.7878953 75.7298321 31.1977398
36.4588760 78.1075954 28.0736908
36.0117368 77.8863654 28.7370235
36.5653895 77.4342790 28.7845358
36.5194865 76.8333077 29.4709895
36.6612710 76.3086006 29.8800468
37.0164029 77.5828883 28.2321014
37.2200012 77.8470933 27.7496316
37.0462164 76.8425316 29.0094074
37.1754579 77.1878511 28.5345074
37.0170325 76.3749033 29.5035820
36.9937010 75.9829581 29.8949778
37.4221466 76.3852745 29.1346982
37.6386791 77.2724673 28.0336421
37.6101397 76.7308623 28.6251605
37.9911847 76.0793388 28.9169792
38.3908935 76.5663087 28.0937850
39.2571837 76.1043876 27.7572628
41.7721942 -17.5427608 -7.3688687
41.7835787 -17.0182101 -7.7876467
42.0747623 -21.1702082 -4.0726112
42.1710797 -17.7189987 -6.7666173
41.8776497 -19.3815641 -5.7645431
42.1552025 -20.2174410 -4.7794217
42.1938747 -19.5619632 -5.2648550
42.2042161 -17.1354450 -7.1910545
42.2417559 -19.0572403 -5.6166383
42.7840799 -17.8701300 -5.9578274
42.5861962 -18.5900331 -5.6093275
42.8922661 -16.9066377 -6.5861628
42.6175520 -19.6276531 -4.7512422
42.8705104 -20.1318543 -4.0801740
42.6921919 -19.0446824 -5.1303790
43.3532558 -18.2726402 -5.0259046
43.1987382 -19.1938207 -4.4761659
43.8397378 -17.0268379 -5.4525826
44.0829694 -18.5998082 -4.0147873
43.6372720 -19.5244420 -3.7631618
44.3226136 -17.6369715 -4.4918242
44.9165329 -17.8710669 -3.7063041
45.0263582 -17.2368903 -4.0627909
44.7009318 -16.8693289 -4.6665226
41.4821543 -26.7632827 2.1540122
41.5315516 -26.4958218 1.6594492
41.6793153 -23.9314828 -1.8898578
41.6814089 -26.4646262 4.3530599
41.6490696 -24.3322998 -1.4747190
41.9203937 -24.6255901 -0.6371014
41.8380015 -24.4025514 -1.0936073
41.5500663 -22.8660684 -3.1310485
41.8427885 -25.2365861 0.1482265
41.7183749 -25.6524757 0.5742786
42.0342684 -24.8216931 -0.1377723
41.8612547 -26.3644643 2.8617647
41.7852290 -26.4652688 3.6858905
41.6504703 -25.9731077 0.9710373
41.7698994 -26.0532089 1.4385600
41.7990237 -23.3585779 -2.3399086
41.8309905 -22.8629801 -2.7978464
41.8448038 -26.1967406 2.0374469
41.9739224 -25.8779824 4.9031051
41.9719964 -25.6058052 1.0912619
42.1274565 -25.8981399 4.1871709
42.3032157 -25.2576768 5.4275692
42.0373753 -25.2837986 6.1090374
42.0959890 -23.9561070 -1.2606911
42.2144197 -25.5740769 1.7001481
42.3673131 -23.2982747 -1.6573456
42.3116237 -22.4119015 -2.6787862
42.5027758 -21.7378084 -3.1086640
42.1308465 -25.1916721 0.6909947
42.2442183 -25.7584751 2.3929516
42.1876945 -25.9226263 3.5609107
42.2496907 -24.8298552 0.3085236
42.5621606 -25.4361685 3.1110963
42.2104597 -22.9145177 -2.2865855
42.5560921 -24.2708623 0.0011341
42.2432199 -24.1661165 -0.7427431
42.5117724 -25.2706371 4.6600210
42.3146784 -25.2136178 1.1727627
43.0141352 -20.9651142 -3.2440519
42.5879173 -25.3485888 3.9321366
42.7635871 -25.0505451 2.2451743
42.5978266 -25.0165779 1.5144744
42.5986983 -24.7116182 0.8753275
42.5899029 -24.6495269 6.0300231
42.0782194 -25.0002276 6.5797255
42.7202769 -22.5917604 -2.0011668
42.7663215 -23.5636421 -0.7108105
42.9509841 -24.5690178 5.1505868
43.2603098 -22.6933341 -1.1445377
42.9080613 -22.0083818 -2.4090451
43.0240445 -24.8381980 3.6775549
43.2260931 -24.6026050 3.0573776
43.0505760 -24.6858280 4.3415814
43.0233777 -21.5300135 -2.7444684
43.0363454 -24.5059822 1.5845075
43.1596674 -24.0405519 0.8904980
43.3541015 -23.4614927 0.2242586
43.4101671 -24.2882445 2.3208077
43.1407802 -24.1406709 5.6958343
43.1561805 -23.8018166 6.4335465
42.3819460 -24.4437512 6.9493954
43.2290249 -22.1735202 -1.8488839
43.4253961 -23.0389535 -0.3753178
43.4637144 -20.2295296 -3.3825573
43.3792248 -21.2546196 -2.6098553
43.8122377 -20.6708144 -2.6456516
43.5152948 -24.0183529 4.7199544
43.4265360 -23.9584111 5.2792882
43.2966761 -21.6641072 -2.3257185
43.2306081 -21.9222903 -2.1420966
43.6027460 -24.0842775 3.8798219
43.5711928 -23.8891710 1.6590930
43.5180217 -23.6798245 5.7265889
43.4578210 -21.8311511 -1.9623442
43.7247716 -23.4369803 1.0531670
43.7434763 -21.9573658 -1.4235118
43.8403748 -22.5744285 -0.3816572
43.9034998 -22.2473703 -0.7905834
43.7436998 -21.4115288 -2.0436670
44.0513343 -19.8482834 -3.0756332
43.8701250 -22.8348058 0.1490005
43.9146608 -23.0247565 0.6456095
43.8822135 -23.7953346 3.0025640
43.8547768 -23.7458125 2.2821778
43.9311154 -23.3561285 5.2393675
43.8881628 -23.0829008 6.1384714
44.0212786 -23.4550275 4.4799540
44.2513935 -19.1767570 -3.3971383
44.1124476 -23.2680570 1.8203616
44.3577319 -23.1485777 3.7695332
44.1703126 -22.9428727 1.1634409
44.2124978 -22.4200040 0.0915508
44.2841426 -22.1402720 -0.2820058
44.2572758 -20.9692083 -1.8784351
44.2261435 -21.4521270 -1.3865202
44.2423597 -20.1740749 -2.6107335
44.3950407 -20.4574857 -2.1986957
44.1779643 -23.3863220 2.5224362
44.4305539 -22.4408731 0.7106350
44.2884825 -21.8143947 -0.7942343
44.3924181 -23.1508724 2.9898509
44.4420241 -22.6037074 5.6913001
44.5480943 -22.1436508 6.6441367
43.7014252 -22.8291880 7.2270250
44.6341857 -22.6300433 4.7842497
44.6069166 -19.3726048 -2.8670542
44.4540828 -19.8275857 -2.6671009
44.9610651 -18.5947344 -3.1021861
44.6306765 -22.5460026 1.6498754
44.5399024 -22.8733476 2.4137895
44.5407704 -20.0708359 -2.3737526
44.5981063 -21.0771430 -1.3269113
44.7024815 -21.3388167 -0.8007055
44.5508212 -22.0867936 0.2014872
44.7816700 -20.5982421 -1.5979254
44.9286848 -22.4345420 3.1005547
44.9730083 -22.3521274 3.9986237
44.7512940 -20.1890711 -2.0290897
44.7714701 -21.6534715 -0.1365693
44.8775701 -19.7189078 -2.2854076
44.9375510 -21.7813123 0.5479038
45.0431481 -21.9061896 1.2468547
45.1816916 -21.7377804 5.7273242
44.9135043 -22.3613568 2.3130653
45.1228991 -19.1489868 -2.4827407
45.0527146 -20.8236687 -0.9371670
45.2840365 -20.9951997 -0.2171151
45.1101772 -22.0175646 1.8903450
45.4974025 -21.6348805 4.5966874
45.1480336 -20.0531986 -1.6680427
45.2697650 -20.3713793 -1.1696232
45.2369787 -21.3258192 0.3184126
45.5278419 -19.4167551 -1.7796209
45.4501137 -21.7863861 3.6643858
45.3043468 -21.8850262 2.4576723
45.4653092 -21.7522737 3.0256910
45.3448966 -17.9376695 -3.2125069
45.6664488 -18.6975505 -2.2402189
45.7446724 -18.0330351 -2.7015274
45.7339771 -17.2771160 -3.2998442
45.4426855 -21.3080589 0.9276812
45.7134470 -20.2568453 -0.5620550
45.5721021 -21.3952381 1.7764879
45.6207432 -19.9179817 -1.1696831
45.6751399 -20.8511408 0.4856365
45.8455123 -20.4634555 0.0932027
45.8854102 -21.0309587 5.3802901
45.9079295 -20.7601860 6.2634745
45.3157946 -21.2434884 6.7808744
45.7719564 -21.3083178 2.5803975
45.8651073 -21.2698486 3.2489221
45.9919870 -21.1215895 3.9199837
46.0536629 -20.6356719 1.2462124
46.3617817 -20.6005462 4.6842736
46.1497270 -18.9019628 -1.4772742
46.4719906 -18.0763993 -1.8243665
46.0175909 -19.4662921 -1.0931317
45.9241010 -19.8275410 -0.8254554
46.1395159 -20.7560323 2.1179989
46.1442843 -20.3018449 0.5987253
46.4112833 -19.7534785 0.1339795
46.2295115 -19.6095072 -0.5584350
46.2503843 -17.5932106 -2.5010584
46.2403446 -20.7605083 2.8277978
46.2844558 -20.7665917 3.4070981
46.4493483 -20.3069374 5.6647174
46.5004966 -20.0197548 6.4538084
45.8095893 -20.6133369 6.9984831
46.1702310 -20.2623028 6.8518724
46.5197861 -20.4814356 3.8688898
46.4605987 -19.0865882 -0.8471775
46.6951951 -19.7483022 1.0384320
46.5874933 -20.1237220 1.8373550
46.5428270 -20.3206260 2.4567451
46.6177166 -18.6060909 -1.1407207
46.8282998 -20.0584102 3.1305130
46.6764905 -19.1859473 -0.3120824
46.5860814 -17.5277106 -2.1817654
47.1533649 -19.6902342 4.1832216
47.0342785 -19.7200365 5.1949038
46.9021127 -19.1155449 0.0958822
46.9751358 -19.2053616 0.5305522
47.0115058 -18.1825161 -0.9937573
47.1937694 -17.5796654 -1.3548306
46.8683466 -18.7061839 -0.6345140
46.8969941 -19.8566914 2.3596084
47.1364409 -19.4219612 1.8061546
46.9884686 -19.5751432 6.0435166
47.0279530 -18.7929701 -0.1919468
47.3790355 -19.2948412 2.5532921
47.6236343 -19.1082489 3.3607420
47.4554785 -18.7921897 1.0887455
47.3607443 -17.0829929 -1.6262408
47.3295301 -18.6005048 0.2384052
47.2554639 -18.3349214 -0.3862145
47.7145053 -18.9693961 4.9086749
47.5432873 -19.0215446 5.7050255
47.5821905 -17.6665112 -0.6421219
47.7639809 -18.6852925 1.9603835
47.7955490 -16.9113297 -1.1745556
47.6343781 -18.0140566 -0.0557888
47.9490198 -17.9496016 0.5994987
48.0244868 -18.5409840 2.7113757
48.2357815 -18.2740428 5.4859347
47.8774421 -18.5094271 6.1909598
47.4332310 -18.9604573 6.3771028
