# 3D Systems, Inc.
# New Model
56.2641025 -61.9214550 19.6157042
56.3424975 -61.9577765 19.3109047
56.5737709 -60.2452271 14.3361110
56.5346926 -60.4972914 15.1292849
56.4875416 -59.5619157 13.4149482
56.5377921 -59.8919056 13.8166109
56.4967133 -59.3115315 12.7615193
56.4172007 -58.3736412 10.9383743
56.5326288 -60.7476309 15.6909339
56.4898849 -58.8123128 11.5090841
56.5434918 -59.2022911 12.1055674
56.5698333 -61.5762882 17.2907393
56.7215867 -62.1824488 17.8034045
56.6150695 -61.4086613 16.6660026
56.6453002 -62.5463426 19.1201363
56.7096286 -61.3309629 15.9118306
56.7256398 -63.0267709 19.9139491
56.6945672 -63.2438883 20.6988677
56.7318536 -62.4662600 18.4392426
56.6288121 -60.0009710 13.4428795
56.6575527 -59.8975383 12.9698049
56.7852817 -61.0215217 14.6808773
56.6771738 -60.2796674 13.7386192
56.8614639 -60.8892851 13.8223581
56.8918884 -64.0239194 21.9633002
56.9303073 -63.8426691 21.0833941
56.7719601 -63.9929697 22.6013679
56.6953905 -61.0328019 15.3216580
56.7176566 -59.5738962 11.5315551
56.6965230 -59.7707853 12.3083442
56.8047874 -62.0320439 16.9563051
56.3759990 -63.8724267 24.1299421
56.7753427 -60.3882410 13.2712973
56.8305776 -61.8434139 16.3509734
56.8467453 -60.3679866 12.6183964
56.9734797 -60.2620430 10.9342495
56.9038577 -61.5786202 15.1955057
56.9714382 -62.0095469 15.7983694
56.8618923 -62.6580045 18.1539208
57.0336431 -62.7392158 17.2073860
56.9857396 -62.8617033 17.8695340
56.8998940 -60.2849908 11.8668228
56.9963455 -63.7309551 20.2977452
56.9891185 -63.1079152 18.5082238
56.9157302 -63.1934553 19.2323215
57.1310073 -61.9043782 14.2763332
56.9683500 -60.9141365 13.0327381
57.0662878 -63.6561960 19.5974261
57.0348501 -62.4365695 16.4251756
57.1061485 -61.4972264 13.4139424
57.0684485 -60.9707087 12.2621851
57.1150035 -62.1868670 15.1799032
57.0794418 -60.7822426 11.5518374
57.2982207 -63.6057258 17.6808629
57.1915656 -61.0234253 11.0652335
57.1408756 -61.3909811 12.8053604
57.2155416 -62.6871511 15.7242604
57.3301129 -63.3065328 16.5140461
57.1253486 -63.6010170 19.0223064
57.2500043 -61.3885671 11.6348099
57.2769605 -61.6919920 12.3257944
57.2750233 -61.8992150 12.9881948
57.2494119 -62.0069727 13.5511179
57.3383979 -62.7652109 14.8968007
57.3189035 -62.3123050 13.7723153
57.4804656 -62.9127547 13.9564667
57.4108660 -61.7559329 10.8737657
57.4060231 -62.4428205 13.2938493
57.4590936 -62.3911135 12.5291357
57.4821234 -63.4241179 15.5222947
57.4546754 -62.1387362 11.7293857
57.5876683 -63.4921789 14.7036081
57.6403365 -63.1644726 12.9488744
57.6233640 -62.6061484 11.1269392
57.6877631 -63.0426928 11.8756751
57.7123240 -63.5979474 13.5995047
57.6889776 -63.6594519 14.1304871
57.8638688 -64.0201345 13.0763445
57.8561984 -63.7879372 12.2871744
57.7734001 -64.0594140 14.5026641
57.8916073 -63.6063740 10.8244317
57.8651205 -63.6656433 11.6630569
49.8570576 -48.4586507 21.8421426
49.8973355 -48.8722622 22.6420891
49.8856269 -48.1640734 21.2201737
50.0913635 -41.4106473 20.3556065
49.9365777 -47.9321405 20.7744855
50.1660332 -40.8608504 20.5203332
50.1476377 -38.4649187 22.1904237
50.0643365 -38.0480587 22.7140710
50.1448996 -40.3880365 20.8365787
49.8176813 -48.7476885 23.3976953
49.8927869 -48.9229858 24.0374766
49.4906753 -47.5449152 24.5115384
49.7654453 -48.3784825 24.7401148
50.1124114 -47.0089652 19.8438596
50.0236340 -47.4025086 20.1773923
50.2590612 -46.4264825 19.4517281
50.2815656 -45.7641035 19.3555094
50.6136008 -45.2739820 18.8937224
50.0948615 -37.5002511 23.1750738
49.8809554 -37.4096967 23.8881782
50.0846058 -47.9079559 20.3253217
50.1480885 -39.0457548 21.7347685
50.1590110 -39.5232253 21.3788990
50.0384644 -48.7633459 21.3020891
50.1662754 -48.5952087 20.6492878
50.4476950 -39.7609398 20.7628757
50.1473695 -49.3474975 21.7653159
50.6987013 -43.6863154 18.9147126
50.4509248 -43.1727879 19.3133838
50.0744134 -49.5129228 23.3961064
50.9032980 -44.4832593 18.5611006
50.3819659 -41.5041037 19.8958106
50.3612570 -41.0931148 20.1001167
50.2085686 -49.8245098 22.5582346
50.5067445 -42.5999947 19.3668548
50.4259914 -42.0226082 19.6500178
50.3095686 -47.7323532 19.7357051
50.2425022 -49.2295995 21.0644044
50.2977744 -37.5958346 22.6044059
50.2883568 -37.9297808 22.3264303
50.4559502 -47.1505895 19.2719828
50.4016988 -40.3487906 20.4486735
50.6117567 -46.0807271 18.8864842
50.3115989 -48.3322293 20.0388134
50.5688377 -40.6613797 20.0482998
50.6159775 -46.6766395 18.9265218
50.4752882 -39.0593670 21.1703572
50.4834093 -38.4987965 21.5560570
50.4774116 -49.4503304 20.5192305
50.5198948 -48.9718542 19.9894812
50.3778607 -37.2248739 22.7926597
50.2273217 -36.7906541 23.6115288
50.3679067 -36.9556919 23.0889283
50.4837930 -49.9669239 21.1149175
50.4251011 -50.2490848 21.8808707
50.5304486 -37.9230529 21.9105408
50.3129549 -50.2485260 23.1341291
50.3150597 -50.2555668 23.8073468
50.1326434 -49.6310927 24.2334623
51.2348898 -45.1776646 18.1276575
51.0043763 -45.8174497 18.3745399
50.6772101 -41.0557576 19.7077859
50.7760495 -41.5077023 19.3933249
50.5871177 -48.4546795 19.5171181
50.7423468 -47.8804819 19.0085731
50.4625067 -37.6266092 22.2520884
50.7891700 -42.9723933 18.9171322
50.7672392 -40.1064865 20.1057438
50.8323461 -47.1935682 18.6948385
50.5688898 -37.2601040 22.4056672
50.7972650 -42.0790575 19.1547778
51.1893257 -43.8742824 18.2757638
51.4598489 -44.4420613 17.9299675
50.8628078 -39.0468687 20.6285063
50.9729348 -39.5113789 20.1999657
51.0399491 -46.5492904 18.3525328
51.1755198 -43.2467870 18.4090752
50.8605950 -42.4970649 18.9441349
50.5119413 -50.8462414 24.1856128
50.3528453 -50.2689406 24.5559718
50.7235080 -50.1114056 20.4590540
50.8388765 -49.8033725 19.8673308
51.1424802 -40.5483134 19.4453914
50.6863482 -37.4349393 22.0540408
50.8580916 -49.1856448 19.3678308
50.8466251 -38.5130346 21.0091341
50.8409217 -38.0095914 21.3750843
50.9090461 -48.6290492 18.9822428
50.8939102 -37.5162996 21.6827933
50.9281904 -41.0654992 19.4029715
51.1242859 -42.6794626 18.5938980
51.0578193 -47.6855971 18.4576642
51.1961728 -48.3319908 18.4277687
51.2089022 -47.2347029 18.1768090
51.1474125 -42.2018357 18.7188759
51.1525273 -41.7031199 18.8979544
51.1706918 -39.8607515 19.7711661
51.6376682 -46.0145362 17.6512655
51.1727892 -41.1832035 19.0923847
51.0402843 -36.8724018 22.0495276
51.0787144 -49.8131923 19.3153583
51.0483161 -49.0907207 18.9266764
51.1569679 -49.5375320 18.9768989
51.5041389 -46.8490385 17.7865010
51.9290790 -45.0184345 17.4207333
51.2694940 -38.4991504 20.4997975
51.2434654 -37.9928946 20.8851360
51.1516333 -48.8527119 18.6496228
51.2639992 -38.9811695 20.1771688
51.4176376 -39.3634439 19.7947808
51.1298478 -37.6333073 21.2707128
51.2096845 -37.2546427 21.4783363
51.4115430 -47.8034243 17.9970246
51.6320243 -43.8185446 17.8364683
51.4044538 -43.5395688 18.0908367
52.0099960 -44.2239232 17.4446348
51.2732901 -49.2770858 18.6336115
51.6313091 -39.8144126 19.3486456
51.6221672 -40.9260429 18.7767260
51.8884994 -40.3348356 18.8379064
51.3533838 -50.0939526 18.9594980
51.4337718 -42.8001285 18.2472579
51.4138117 -42.4081720 18.3808859
51.5195802 -47.3535433 17.7871957
51.7102890 -43.1890115 17.9117862
51.4428951 -48.9702821 18.2601232
51.4397956 -49.7746952 18.6139438
51.8002547 -48.5326834 17.6456030
51.5314415 -37.4104008 20.9846552
51.4879934 -41.4014906 18.6857134
51.5972041 -38.9271528 19.8667590
51.9716069 -39.1197912 19.4499753
51.5678115 -38.5812484 20.1156046
51.6049229 -41.9057533 18.3938332
51.5362024 -49.4785234 18.3140971
51.9467555 -37.9075520 20.2424284
51.7918468 -47.7104150 17.4961053
51.7625734 -47.2021103 17.4829792
52.1464460 -43.5672924 17.4673032
51.8193580 -42.4936190 18.0162862
51.6220443 -50.2570197 18.5748059
51.8044271 -50.0061400 18.1453098
51.8267527 -49.3828468 17.8550500
51.9407131 -46.7672646 17.2765963
52.2972792 -45.6360206 16.9721488
52.2617213 -46.3003144 16.9395208
52.3089990 -39.6810137 18.8617148
51.8900938 -37.3183042 20.6722524
51.5157208 -36.8750915 21.4236341
51.8882871 -36.9188264 20.9693052
51.8668965 -38.6070944 19.8331717
52.4539351 -44.5251353 16.9945825
52.4754412 -45.0697616 16.8716311
51.9374646 -41.3381532 18.3224417
52.1186329 -47.3618880 17.0677882
52.2214659 -48.0428264 16.9960968
52.2415042 -49.3082777 17.2288343
52.3759127 -48.7298816 16.8955028
52.4737537 -42.8174064 17.4289439
52.1758795 -40.7985859 18.3560029
52.3479171 -41.8597013 17.8289451
52.5098741 -43.9063832 17.0813296
52.2193052 -50.0014797 17.4972713
52.3570590 -38.4939648 19.5315871
52.7566783 -38.9455892 18.9758185
52.5578298 -40.2650237 18.3442626
52.4025261 -46.8928702 16.7354830
52.8628156 -37.9237793 19.4931291
52.7855530 -37.1957980 19.9710038
52.2586443 -37.0489210 20.5189940
52.5880195 -43.3998406 17.1539094
52.4393395 -41.1916897 17.9908611
52.6437536 -47.5817509 16.4193157
52.6485629 -48.3503491 16.4515562
53.1618558 -39.5976976 18.3037892
52.8075285 -45.3912206 16.4663214
52.6808985 -46.0012630 16.5014975
52.5873564 -49.8976596 16.8643259
52.5448695 -50.3719710 17.1058364
52.8896488 -44.7539203 16.5211298
52.6423492 -49.2975973 16.6130047
52.6864231 -40.7735519 17.9946218
52.9182218 -44.1437699 16.6529845
52.6209027 -46.4832149 16.5105853
52.8117344 -38.4370387 19.2276966
52.7016781 -48.8430485 16.4367929
53.1123057 -42.0867540 17.1898212
53.0860946 -41.2234478 17.5495315
52.8404750 -46.8661673 16.2049346
52.9509559 -43.5415208 16.8036744
53.0046299 -49.8529673 16.1482934
52.8605506 -43.1479625 17.0067735
53.1973317 -42.7944437 16.8513525
53.2196686 -40.4081717 17.8351365
52.9473200 -49.1449982 16.1019638
53.2908924 -38.3727998 18.9206079
53.5564236 -37.7374366 19.0922562
53.3274412 -37.3043343 19.4885675
52.8984070 -48.6764647 16.1196738
52.9120229 -46.3463776 16.1812529
53.3967763 -38.9115065 18.5351744
53.0627705 -48.2053384 15.8424657
53.2243475 -47.3476909 15.6447757
53.3635803 -44.3606302 16.1482207
53.3335768 -43.7565781 16.3831748
53.0901924 -43.1826189 16.8032516
53.2338209 -46.5420410 15.7439467
53.1761125 -45.8327010 15.9537364
53.3162989 -45.0337008 15.9923732
53.1322025 -48.8115512 15.7653615
53.3060692 -49.3622050 15.5264176
53.3725880 -50.0286892 15.5145833
53.3510074 -43.2459973 16.5527724
53.4448139 -48.6618988 15.2370986
53.4392148 -47.9802974 15.2683826
53.9719127 -39.8873352 17.6025648
53.9987795 -39.0638262 18.0402678
53.9317206 -41.5538140 16.7908724
53.6358319 -42.2788970 16.7003311
53.8723841 -40.7017507 17.2470491
53.8071916 -38.5614336 18.4526127
53.8711771 -38.0764008 18.6824836
53.8535416 -42.8029597 16.2846427
53.6220148 -49.7939363 14.9784582
53.6160842 -49.2249504 14.9406232
53.6294803 -46.7677042 15.1518751
53.6180660 -46.0918844 15.3291645
53.7054688 -47.4814437 14.8980636
53.7375249 -43.8490659 15.9508940
53.5570346 -44.6423516 15.8458073
53.7911728 -44.3427451 15.6943556
53.6786020 -43.3975644 16.1925647
53.6622070 -45.4229265 15.4630654
53.7563227 -44.8305272 15.5511955
53.7548475 -48.2010804 14.7226527
53.7969694 -48.8352068 14.5981349
54.0371984 -37.6249850 18.8199151
53.9545640 -37.1184275 19.1539247
54.0839508 -45.6799231 14.8172760
53.9167896 -46.3107899 14.8493508
53.9047271 -49.4541414 14.3676167
54.0817268 -42.1608798 16.3849723
54.1160256 -43.3330089 15.7929193
54.1408733 -43.9020097 15.4977133
54.0192686 -45.0715125 15.1381511
54.0690869 -46.8357801 14.4529892
54.1906469 -44.4694422 15.1781337
54.1936010 -38.3078158 18.3303729
54.3494709 -37.8494486 18.4846204
54.1006289 -38.6313125 18.2107054
54.1032180 -47.7525704 14.1582713
54.4177033 -42.3818827 15.9853771
54.3465912 -42.8359322 15.8160347
54.0246181 -48.4789833 14.1892554
54.0209599 -48.9604697 14.1460169
54.5171835 -40.2638949 17.0140136
54.5090064 -40.8758335 16.6937932
54.1725978 -46.1910181 14.5000843
54.1765355 -49.8802103 13.7339979
54.1781150 -49.2222682 13.7674334
54.4513315 -39.4038446 17.5423045
54.5893013 -39.7694297 17.2388162
54.4203222 -38.5829359 18.0257298
54.6918772 -38.9285795 17.6520757
54.5672402 -41.7929515 16.1611792
54.5860827 -41.3177982 16.4004788
54.4623174 -37.3399593 18.6945926
54.4006228 -44.9623056 14.6827362
54.6374321 -38.1315611 18.1377325
54.3196872 -45.9018089 14.3795423
54.5517653 -45.5103330 14.1934296
54.1756935 -48.7666391 13.8329631
54.2660393 -48.3200438 13.7071507
54.4719845 -47.1151993 13.6234676
54.4613488 -46.2458059 14.0012782
54.5111522 -43.4850976 15.3002394
54.4931591 -43.9370982 15.0779840
54.5340255 -43.0686846 15.5069111
54.3986484 -47.8234068 13.5417273
54.7274500 -44.2512892 14.6120926
54.3995984 -49.4052321 13.1743904
54.3592200 -48.8068201 13.3875525
54.9152270 -37.6057886 18.2571076
54.5006543 -48.2597612 13.1697031
54.7998659 -42.6122062 15.4930707
55.0129376 -39.3666737 17.1785597
54.9260564 -38.4204499 17.7900828
54.5994304 -48.8184020 12.7183683
54.8243076 -44.8116623 14.1504155
54.6252355 -47.6618260 13.0738979
54.8413135 -42.1175174 15.7430228
54.5849539 -49.4787879 12.5930477
54.8819527 -43.0953242 15.1165379
54.8839979 -43.5934179 14.8067148
54.7013618 -49.7980528 12.0754503
55.0149791 -39.9149023 16.8533977
54.8013002 -46.4180224 13.2639101
54.8219942 -45.7769781 13.5869905
54.8118688 -47.0815562 12.8877265
55.0452843 -38.0077474 17.9479402
54.7223091 -48.1040888 12.6268584
54.9420081 -45.2175215 13.7135992
54.9236871 -41.3889140 16.0864554
54.9796708 -41.0002097 16.2605233
55.1529564 -40.4301621 16.4470393
55.1640280 -41.6679978 15.7078039
54.8167601 -47.5847498 12.6171848
54.7314920 -49.1682366 12.1462876
54.8603013 -48.4647602 11.9829047
55.3518161 -38.7295857 17.3353627
55.1372729 -44.2402773 14.0355639
55.1380143 -43.7735207 14.3576665
54.8159890 -50.0460528 11.4605771
54.8403226 -50.5670272 11.2067731
54.8866279 -49.2570847 11.3993855
54.9023412 -47.8185415 12.2295991
55.3532057 -37.7290435 17.9146044
55.5810779 -37.1942520 18.0761777
55.0005734 -36.9788893 18.5528472
55.1790185 -44.6974859 13.6492997
55.1282018 -46.4607254 12.4725914
55.0935790 -45.8384939 13.0009139
55.0002716 -47.2553559 12.2819804
55.2343987 -42.1609245 15.3293703
55.3099997 -42.6574498 14.9087319
55.0755151 -45.4369187 13.3225452
54.9380183 -49.9618463 10.6431833
55.2011803 -45.0615510 13.3481910
55.0921634 -47.6703756 11.6539225
55.0584830 -48.3818501 11.1398390
55.1696569 -43.4752367 14.5235127
55.2138947 -43.1838408 14.6653764
55.5058606 -39.6324508 16.6657828
55.5326901 -39.1671471 16.9425625
55.4178655 -38.1380171 17.6416803
55.2924126 -41.1858819 15.8909801
55.0733432 -48.9505045 10.3816278
55.3770028 -40.8156477 16.0423499
55.3368852 -40.0081016 16.5618323
55.2270152 -46.9040312 11.8339136
55.3228445 -45.2677831 12.9354550
55.2118309 -48.1123812 10.4461415
55.2110858 -47.7638021 10.9875426
55.3677827 -47.0396318 11.1221457
55.4083996 -45.6516780 12.3999547
55.3941317 -43.3821231 14.2805865
55.4711744 -44.1747196 13.5405893
55.4944240 -44.6454957 13.0961481
55.5394441 -46.0586585 11.6182705
55.4537959 -43.7355749 13.9185712
55.6220189 -41.3035303 15.5068245
55.6105711 -41.7497940 15.2083673
55.6844175 -40.0408991 16.2663423
55.7820350 -40.5162685 15.8735700
55.3305484 -47.5222319 10.5635943
55.5752330 -42.9291353 14.3706826
55.8299460 -37.6905724 17.6464543
55.6348711 -42.1702228 14.8810279
55.7601899 -42.4517840 14.5025076
55.6226671 -40.9468710 15.7460310
55.6769110 -44.9075960 12.4235358
55.5063523 -46.9767600 10.3695635
56.0439229 -38.2377766 17.1936005
55.8916517 -38.8323367 16.9140380
55.6881055 -46.2496877 10.7553676
55.7000972 -45.3202724 11.9265616
55.9468046 -39.2526202 16.5893119
56.0584553 -39.6380424 16.2331332
55.7302721 -43.2199351 13.9026986
55.7494462 -44.0562740 13.1226499
55.8747277 -44.2352742 12.6588587
55.7840727 -43.6203666 13.4595959
55.8857545 -45.5820262 10.9632025
55.9229366 -45.1894291 11.3874106
55.9957922 -41.3613729 15.0663508
55.9483953 -41.8332033 14.7562576
55.9559502 -42.6730327 14.0290456
55.9689179 -40.9165286 15.4266292
55.9801869 -44.7232611 11.7881009
56.0057685 -44.3620384 12.1678328
55.9107959 -45.8359495 10.2639953
55.9040308 -45.7321778 10.6256697
56.2616698 -40.0042087 15.7937873
56.3229993 -37.6750641 17.3603818
56.3182943 -37.1755548 17.6468436
55.8797941 -42.1454236 14.5980120
56.1245270 -42.1039984 14.2919049
56.1177507 -43.5173362 12.9008433
56.1327487 -42.9626666 13.4597514
56.3278385 -40.4697582 15.3853642
56.2420525 -43.7792912 12.2795189
56.1165325 -45.2544950 10.3861643
56.1364293 -44.9904688 10.8607085
56.2591031 -38.9438495 16.5777616
56.2876984 -38.6206768 16.7871229
56.3181154 -44.4117039 11.1226356
56.3086420 -44.0416373 11.7227640
56.3753806 -41.4550640 14.5229474
56.3272536 -42.3423462 13.7550365
56.4849190 -39.2401107 16.1739551
56.3765056 -40.9213044 14.9787161
56.4700589 -39.6135040 15.9005504
56.7457974 -37.8805213 16.9733092
56.5598272 -38.3388773 16.7956948
56.4336926 -42.8664498 12.9847610
56.6144809 -42.9822505 12.4247856
56.4181991 -44.5295013 10.4036294
56.5219559 -42.4438380 13.3092031
56.7079149 -37.4317355 17.2719583
56.5394163 -41.8046974 13.9606474
56.5836392 -43.4105955 11.8594971
56.7269474 -38.6985950 16.4046008
56.7428134 -40.0275439 15.3008737
56.7032918 -39.7201814 15.5951167
56.7707866 -43.4616432 11.1823464
56.6875935 -43.9055115 10.5647296
56.6284694 -42.0477465 13.5662062
56.7726791 -40.8896320 14.5174721
56.8190329 -41.2795879 14.0732639
56.7607991 -40.4557586 14.9204358
56.7793250 -42.3719361 12.8884139
56.8019524 -39.4276269 15.7401115
57.1053848 -39.0027463 15.8258751
56.8017513 -42.0425311 13.2649029
56.9187142 -41.6086577 13.5636246
56.9711216 -38.2394828 16.5734421
57.0095927 -42.7248441 11.7490618
57.1573265 -42.1234109 12.3765729
57.3656298 -38.4036787 16.1237884
57.0787229 -43.2247743 10.3942454
57.1498461 -40.4191241 14.4618722
57.1643226 -40.0011353 14.8408497
57.1335517 -41.7451300 12.9994228
57.1541823 -40.8033356 14.0667902
57.3433228 -37.8674418 16.5665355
57.1878999 -37.4344289 16.9689562
57.3812053 -42.4800701 10.9578678
57.1495704 -41.1317460 13.7229431
57.1776889 -39.5014808 15.2922338
57.3143549 -41.2555113 13.2912304
57.5342067 -41.8776758 11.7398761
57.5306043 -40.3460599 13.9898751
57.5448126 -39.9743505 14.3730715
57.4713983 -42.5788015 10.2291899
57.5325675 -40.7452546 13.5173397
57.4707240 -41.5039323 12.6123754
57.4144647 -41.3649939 12.9587157
57.6036721 -39.5652987 14.7260576
57.5514063 -38.9524214 15.4337669
57.6775968 -39.1986445 15.0272911
57.5140789 -41.6622832 12.2319991
57.7317141 -37.4074876 16.6080054
56.9752194 -37.0419063 17.3345432
57.5369038 -37.0133258 17.0044173
57.4942157 -38.6996977 15.7470554
57.8822419 -37.8679074 16.1332805
57.8658096 -38.4260081 15.6324692
57.8148738 -41.7099893 11.1034196
57.6669388 -41.0185494 12.8924288
57.8508824 -41.1663577 12.1851191
57.9337999 -40.1980095 13.5127809
57.9724796 -40.4860005 13.0313495
57.9147898 -39.8841351 13.9426179
57.9439290 -39.5477936 14.2976707
57.9509102 -41.3242392 11.5306405
58.1354760 -39.0494727 14.6320499
57.9361431 -38.8054028 15.1550993
58.0246672 -40.6898521 12.5870695
58.2543574 -41.1007404 10.9093301
58.4708676 -38.3220576 15.0683634
58.3169349 -37.9162617 15.6748667
58.3207496 -39.6949872 13.5407327
58.2619458 -39.4544192 13.9620313
58.2764931 -40.7970436 11.6334967
58.3058409 -40.5102596 12.1936873
58.3631732 -41.1278233 10.2302991
58.3648384 -39.9716571 13.0280312
58.2948998 -40.2941443 12.6311975
58.2297184 -39.2689742 14.2384032
58.2451597 -37.6728140 15.9839410
58.2068115 -37.3863205 16.2446965
58.5846379 -38.9732085 14.1167231
58.6674400 -38.5744758 14.5210633
58.5580803 -37.4823697 15.8354882
58.8650592 -37.6840457 15.3045496
58.7295555 -40.3463915 11.1209489
58.6863495 -40.6074747 10.3565212
58.6008132 -40.2881764 11.7893666
58.6168282 -39.2541178 13.6814574
58.7934889 -39.7980809 12.3410439
58.8797815 -39.2893963 13.1245442
59.0240508 -38.0913839 14.6408984
58.9278266 -37.9443765 14.9538461
59.0089075 -37.1708460 15.6502910
58.6349145 -36.9747430 16.1818676
59.0999015 -38.7232192 13.6336386
58.9710549 -39.8632362 11.6302716
59.1382757 -38.3314863 14.1452197
59.1102801 -39.9843752 10.3759803
59.2891090 -39.6106988 11.0418350
59.3797006 -38.9813781 12.5482529
59.5382974 -39.0728563 11.7892986
59.2738800 -37.6328081 14.8558961
59.5756806 -38.4961553 13.0520109
59.3546219 -37.2287296 15.2053023
59.6464388 -37.5990644 14.3464440
59.8767251 -37.8384069 13.5788117
59.6124306 -39.3107012 10.2485940
59.8942861 -38.8358943 10.9426519
59.7142540 -37.1401347 14.8373423
59.9875748 -38.2894240 12.3884827
60.1368286 -37.8799736 12.9165677
60.3534542 -37.0371230 13.9865717
60.1385087 -36.9261950 14.4933108
60.4140982 -38.0225629 11.5092639
60.1067804 -38.6616774 10.2392584
60.4625940 -38.1423458 10.6831733
60.4473911 -37.4412090 13.0534023
60.6079660 -37.0792784 13.4079959
60.6698655 -37.4238864 12.3834973
60.8547032 -37.0129645 12.9012344
60.8881898 -37.5472680 10.8626606
61.3043681 -36.8804671 11.3439560
60.8505122 -37.6661159 10.3559243
61.2722263 -37.0758288 10.3016775
50.5899079 -36.4712216 23.1522247
50.5479239 -36.1042432 23.6373581
50.2337478 -36.3144688 24.1471753
49.9804802 -36.8783511 24.2057852
50.6332070 -36.8386768 22.7008946
50.9131067 -35.9130427 23.1459662
50.8945063 -35.4776904 23.6465987
50.5056158 -35.7511118 24.1361186
50.9613194 -36.3135971 22.6744246
51.2746647 -35.4206711 23.0554156
51.3137393 -35.0272693 23.4006159
51.0729663 -34.9297449 23.9255242
50.7137477 -35.2493152 24.2642742
51.2940846 -35.7802548 22.6748567
51.3902605 -36.1152329 22.2409945
51.6175479 -36.3583267 21.7419863
51.6281649 -35.3746861 22.5901008
51.6269729 -35.6745534 22.3179236
51.6402945 -35.0298136 22.9092166
51.3954274 -34.6684493 23.6574784
51.6695566 -34.6630439 23.2466049
51.6675785 -34.3206339 23.6151554
51.3209812 -34.3968607 24.1027959
51.8303066 -35.8355232 21.9353307
51.8793575 -36.5085043 21.3064980
51.9366674 -35.0692049 22.4871337
52.0271286 -34.6901007 22.7477979
52.0831272 -36.0587798 21.4623716
51.9590043 -35.3873409 22.1729279
52.0257205 -34.2640802 23.1731739
51.9625843 -33.9464545 23.5811733
51.7032668 -33.9864641 23.9266250
52.2669479 -35.5338119 21.7070244
52.3330793 -36.4042185 20.9224094
52.3909666 -34.9246226 22.1068654
52.3624271 -33.7619707 23.2405011
52.0948991 -33.4128812 23.9519104
52.5091626 -34.2250727 22.6168782
52.5634289 -35.7810855 21.1874135
52.7868047 -36.5779735 20.3662440
52.9093184 -36.0005274 20.6730384
52.7213700 -35.2419801 21.4741044
53.0102886 -33.4605612 22.7217227
52.5908470 -33.2811810 23.4016739
52.8203733 -34.4488174 22.0579952
52.8507195 -34.8092653 21.7084438
52.9424809 -34.0356641 22.2881548
52.5641888 -32.9466015 23.7412062
52.9322624 -32.8450687 23.3563557
52.7968779 -32.4966945 23.8418169
52.4115264 -32.7250846 24.1582673
53.0420281 -35.4592167 20.9665466
53.1872250 -34.9107720 21.2724935
53.1316176 -36.6860628 19.9911725
53.3504784 -36.1806266 20.1493893
53.2602221 -36.9322859 19.7381936
53.1047434 -34.1954939 21.9693296
53.1338975 -34.4907157 21.6836445
53.2589592 -32.2166793 23.4989449
52.9678278 -32.0332237 24.0329858
52.6512153 -32.2517678 24.2625717
53.2809198 -33.8481180 22.0812391
53.3850566 -35.6336869 20.5039047
53.3844940 -32.6989628 22.9329001
53.4743220 -35.1661034 20.7790583
53.5068251 -33.4623605 22.1607666
53.6092035 -33.0089368 22.4199090
53.3569120 -34.1474749 21.7423886
53.4991026 -34.4088003 21.3752873
53.5155796 -36.5800373 19.7546668
53.6008142 -34.7504914 20.9908020
53.6956824 -32.1786255 23.0048187
53.6926650 -31.7389928 23.3758688
53.3583947 -31.5603912 23.9409413
53.5780936 -36.9139239 19.5153672
53.7790284 -33.7862484 21.6076318
53.8218170 -32.5059593 22.5919727
53.8036749 -35.6819518 20.1101024
53.9519601 -36.1616388 19.6950641
53.7339374 -35.3217162 20.4184074
53.9095476 -34.8909944 20.5889121
53.9625548 -34.3441740 20.9708735
53.8723916 -33.2133137 21.9725221
53.8559295 -36.6528258 19.4701068
54.0840067 -32.7266939 22.1363604
54.0092811 -32.1357995 22.6830058
54.1767217 -32.3035009 22.3690607
54.0289693 -31.7942016 22.9396615
53.7783541 -31.3219018 23.6168299
54.0509894 -31.3827842 23.2462995
54.0424548 -31.0378578 23.5333107
53.7582375 -30.9103653 23.9798389
54.1099906 -35.2265872 20.1714709
54.3879978 -33.7714776 21.0218094
54.4050559 -33.0885053 21.5346292
54.3011874 -36.5174636 19.2552395
54.3111637 -35.5877131 19.7836943
54.5654744 -35.9756462 19.3813127
54.2331077 -34.5571712 20.5529705
54.3976799 -34.2164487 20.6665229
54.2990677 -34.8395370 20.2883556
54.3447435 -31.9082439 22.5046836
54.3996245 -31.4337909 22.8178259
54.3801859 -30.9870280 23.1873915
54.2552657 -30.6060575 23.6294735
54.5342602 -36.8599854 18.9152751
54.6499901 -32.2516859 21.9256859
54.6565019 -34.4743431 20.2608090
54.6402708 -35.0308791 19.8988765
54.8437797 -35.4671218 19.4877423
54.8244417 -31.5389894 22.2912356
54.7608174 -30.4751657 23.1580306
54.7856353 -31.0021676 22.7358025
54.9622662 -36.3486372 18.9270284
54.5856617 -30.0334021 23.6876924
54.0136248 -30.2155390 24.2253970
55.0311171 -33.2662873 20.8229069
55.0739653 -32.6073989 21.2559141
54.8219420 -33.9193307 20.5222946
55.0706685 -35.7945971 19.1561002
55.1230051 -34.5961489 19.8328607
55.1781431 -34.1383219 20.0873595
55.0869964 -31.7820609 21.8402632
55.1967621 -31.0145598 22.3021768
55.3168878 -31.3832536 21.9168961
55.2172847 -35.0197703 19.5110906
55.2439988 -32.0626833 21.4860942
55.1592708 -30.5685513 22.6603616
54.9936742 -29.9689882 23.2726652
55.0132766 -29.5004155 23.5930476
54.4803962 -29.4450875 24.2472719
55.3631969 -33.6361118 20.2879570
55.1716089 -30.1685054 22.9334906
55.3228818 -35.4119726 19.2134697
55.5638038 -36.5274474 18.4545033
55.7055585 -35.7895978 18.7755805
55.5249415 -32.7291228 20.7822714
55.6219444 -32.2390683 21.0313704
55.6985401 -33.1069343 20.3950107
55.4180183 -31.6698179 21.6045044
55.5426590 -30.6011476 22.2539268
55.5118546 -30.1623251 22.5903690
55.4443263 -29.6851471 22.9966361
55.5075631 -34.2892110 19.7630581
55.6072630 -34.6122235 19.5114035
55.5209294 -29.0402491 23.3646613
55.0600253 -28.8546830 23.9977483
55.5585995 -30.9963375 21.9626334
55.6696244 -33.8974297 19.8999383
55.8281280 -35.0077301 19.1428885
55.6309633 -31.8142213 21.3073548
55.8225289 -31.2983282 21.5119403
55.8280908 -33.4787145 20.0574119
55.9188388 -30.6867640 21.8394585
55.9164137 -30.1830862 22.1785549
55.8414422 -29.7733936 22.5271825
56.0608469 -29.1903093 22.7031875
56.0027212 -34.1912098 19.5212513
56.1143570 -36.6529301 18.0567354
56.0392961 -36.2116210 18.3445476
55.5580109 -28.4773633 23.7058327
55.9919477 -28.5480581 23.2039168
55.9406914 -27.9998779 23.6124452
55.5555671 -28.0764177 23.9701197
55.2800708 -28.3521209 24.0919199
55.9829772 -34.5689990 19.3091016
56.2062673 -32.4199498 20.4761866
56.0495667 -31.7861252 20.9848862
56.1747663 -33.6407833 19.7420772
56.5123744 -35.2041312 18.6285879
56.3887730 -35.8371586 18.3438752
56.2438965 -33.1083797 20.0251006
56.2663898 -30.8180209 21.4485843
56.4243682 -31.2341526 21.0500602
56.4957298 -34.4647616 19.0632474
56.2770963 -29.6520200 22.1760552
56.4117692 -30.2289650 21.6948316
56.4058684 -28.0255526 23.1247507
56.4665757 -28.5617318 22.7209926
56.4207770 -27.3023676 23.5593505
55.7134561 -27.5765900 24.1176058
56.4251021 -36.2516679 18.0927813
56.5825216 -33.8658877 19.3636641
56.3751608 -29.2832293 22.3182626
56.5719306 -28.9885551 22.3338995
56.5718003 -31.7136981 20.6447113
56.7587726 -36.5583710 17.7281927
56.7578450 -30.6470171 21.1569425
56.7219220 -33.3039314 19.6103342
56.7574017 -29.6181366 21.7729043
56.5953515 -29.3162633 22.0939182
56.8242930 -32.7024125 19.9085250
57.0842661 -31.9802202 20.1669037
56.8282083 -35.5718285 18.2318222
56.8277836 -35.9983668 17.9938655
57.0157543 -30.0262142 21.3265531
57.1925528 -34.5818140 18.5890645
57.1600460 -35.1837203 18.2550643
56.7811430 -27.6664756 22.9912456
56.8367280 -28.0871429 22.6776190
56.6467382 -26.5918020 23.7456057
56.9305085 -26.8139318 23.3630463
56.2805310 -26.7762374 23.9970554
57.1085624 -27.2267926 22.9644049
55.9861548 -27.0617511 24.1370555
56.9098890 -34.0375043 19.0704782
56.9754988 -34.2761390 18.8930854
56.9337010 -28.5420194 22.3039165
57.0778213 -31.1723147 20.6210632
57.1901500 -33.5610770 19.1857088
57.0959449 -26.3172369 23.4908685
56.7889325 -26.0398146 23.9102170
56.3686043 -26.3123624 24.1647251
57.0041016 -29.0572029 21.9139736
57.3812909 -30.4387230 20.8249390
57.2567992 -35.6359966 17.9391932
57.1373142 -27.7006105 22.6449352
57.2979711 -28.0381329 22.3019887
57.2657250 -29.4504762 21.4724727
57.3163703 -36.1258984 17.6335424
57.3003292 -32.9564624 19.4716230
57.3055334 -34.0251178 18.8501161
57.3870428 -26.6396925 23.0654236
57.2385192 -25.7692039 23.6545876
56.9148697 -25.4967175 24.0692794
56.4721450 -25.7627312 24.3488010
57.3803298 -32.4511304 19.7188482
57.3806465 -36.6135202 17.3327923
57.5689748 -29.8024043 21.0527480
57.4261509 -28.5284463 21.9000001
57.4935563 -28.9741997 21.5811469
57.5535335 -34.8686650 18.2057098
57.8128323 -34.1102034 18.5157713
57.7396154 -34.5440581 18.2935782
57.4452728 -27.4667125 22.5237776
57.6672852 -27.0096455 22.6215888
57.6414019 -35.2415144 17.9319493
57.7398464 -33.6184427 18.8449025
57.7449873 -33.1532173 19.1079415
57.7416904 -31.3873701 20.0930294
57.6084778 -30.8597218 20.4469226
57.5918816 -26.0573290 23.2182760
57.3586561 -27.7299881 22.4318188
57.7801839 -32.0264176 19.7244678
57.3761500 -25.1713507 23.8311104
57.6686412 -25.5406033 23.4201029
57.7950627 -29.2372573 21.2165359
57.7836893 -35.6766693 17.5942145
57.9064377 -30.1014464 20.6648428
57.8227416 -30.5130910 20.4961188
57.9403676 -26.4194738 22.7471292
57.5567633 -27.7218483 22.2719871
57.9044595 -32.5973742 19.3347689
57.9333641 -36.1830741 17.2251500
57.8239523 -36.6468839 17.0415044
57.8390248 -27.9679354 21.9120197
57.8505397 -27.4213105 22.2279374
57.9205416 -25.0478573 23.4754346
57.6440990 -24.6847235 23.8516163
57.2510771 -24.6475153 24.1745338
56.9971837 -25.0385664 24.2085308
58.0558106 -34.7980484 17.9506429
58.0830947 -35.2563299 17.6505856
57.9965711 -28.6008511 21.4397125
58.1327863 -29.5772441 20.8092611
58.2334995 -25.6602503 22.9429919
58.0652133 -30.8277886 20.1924834
58.1050217 -36.9106419 16.6708790
58.2854301 -26.8900804 22.2158916
58.2250580 -30.3704850 20.3299355
58.1097826 -33.2860313 18.8351460
58.1861697 -32.9443738 18.9868696
58.2412593 -33.6253904 18.5688920
58.5220791 -35.5192125 17.2162913
58.3707914 -29.0161222 20.9656898
58.0936000 -24.3705995 23.6808266
57.5790256 -24.2047124 24.1224635
58.1949390 -36.4709422 16.8941896
58.4105626 -29.9275517 20.4512104
58.3193712 -27.4781436 21.8403228
58.1961349 -31.6607393 19.6853410
58.3821349 -31.2013719 19.8213328
58.4949255 -26.2603220 22.4298965
58.0866933 -34.3731456 18.2000306
58.3696663 -34.0323821 18.2540976
58.3656356 -32.0919156 19.3603057
58.5270338 -24.8594303 23.1539868
58.4430546 -28.0011706 21.4651357
58.5374273 -32.5860567 19.0009307
58.4378950 -34.4121344 17.9742258
58.4508926 -34.9915102 17.5870694
58.4772751 -34.6963108 17.7624710
58.5701354 -36.1132100 16.8309417
58.8316135 -29.3777473 20.4962250
58.4429465 -23.7912312 23.7244703
58.6199760 -24.2567286 23.3944152
57.9336733 -23.7556528 24.0700953
58.6257726 -30.6486972 19.9645888
58.5657582 -36.5405679 16.5664684
58.9921139 -25.7742684 22.3744884
58.7844737 -25.3038537 22.7554366
58.6371869 -28.4791961 21.0847240
58.5962310 -30.2262474 20.1889537
58.6091802 -33.1315473 18.6592229
58.7102249 -27.0991866 21.7885207
59.0656176 -26.5513118 21.8886100
58.8557571 -29.9194083 20.1992765
58.8799119 -28.8159885 20.7599550
58.7045327 -31.6058956 19.4357261
58.8290244 -27.5064129 21.4816630
59.1318421 -35.7437655 16.6500304
59.0435006 -36.2798236 16.3524430
58.7670691 -33.6338729 18.2826854
59.0272285 -32.0915021 19.0193988
58.6594231 -34.7695090 17.6036414
58.9383580 -34.8631367 17.3767935
58.7788932 -34.5134437 17.7084599
58.9589775 -31.0920719 19.5610020
59.0245016 -23.8199178 23.3626049
58.7500818 -23.2612826 23.7784535
58.2445301 -23.2862625 24.0721889
59.0663999 -27.9850606 21.0828111
59.0245426 -24.4336613 23.0616480
59.0496361 -24.9175783 22.7931459
59.2967831 -35.2189951 16.8977119
58.8394217 -36.6168879 16.2854251
58.8235818 -34.0935476 17.9636609
59.0947680 -28.4537897 20.8195280
59.0998754 -27.0887688 21.5460639
58.9140244 -30.2784182 19.9881718
59.1051206 -32.6786041 18.6635237
59.3042076 -33.2162380 18.2504710
59.2490025 -30.5591337 19.6683351
59.1588020 -25.2807457 22.5331075
59.0863116 -36.7165692 15.9762017
59.1817833 -29.6739116 20.1429874
59.2511222 -30.0467424 19.9179761
59.4962128 -28.7503190 20.4409938
59.3955293 -29.3445587 20.1937389
59.3762621 -27.4135750 21.2066192
59.3160540 -34.2506431 17.5780579
59.2552572 -31.5197855 19.1982556
59.7172454 -25.9409528 21.8531732
59.5434345 -25.3996924 22.2469922
59.4143458 -28.2430649 20.7420476
59.2188910 -33.7562151 17.9641489
59.5781840 -34.6946195 17.1002969
59.3796074 -24.6138778 22.7603801
59.5637374 -24.1175145 22.9174588
59.5566779 -26.9019306 21.3897228
59.7262383 -26.4690723 21.5435196
59.4608225 -24.9799695 22.5175843
59.4224483 -36.8114971 15.5553268
59.4976023 -31.0618412 19.3010680
59.6917197 -27.8178435 20.8101757
59.5745668 -32.3073529 18.6426733
59.6089326 -32.7333510 18.3841605
59.4634339 -36.3809839 15.9055665
59.5277958 -35.9354801 16.2092447
59.5024042 -23.6284267 23.1899489
59.2886545 -23.2344680 23.4888736
59.5904179 -31.8378918 18.8833196
59.6034564 -29.6980329 19.9020281
59.7159006 -30.1855616 19.6060017
59.6801229 -35.4706086 16.4410360
59.8455183 -33.6154699 17.6926982
60.0008368 -32.9881459 18.0151761
59.7331412 -28.2242484 20.5721296
59.7504042 -30.6691639 19.3605740
59.6751496 -31.4374119 19.0391801
59.8700829 -34.9969529 16.6699123
59.6938580 -36.8359946 15.2179217
59.8136112 -24.6048346 22.5236993
59.8502867 -25.0329636 22.2745314
60.0072779 -34.1940783 17.1930622
60.0307360 -27.2168182 20.9556781
59.8889813 -29.2385388 19.9829377
60.0609034 -28.3280257 20.3460343
60.1981282 -28.7467837 20.0672504
59.7888641 -36.4240333 15.5370664
60.1179674 -32.4496627 18.2874855
60.0171201 -31.9923572 18.6020155
60.0703731 -34.5726497 16.8699026
60.0048155 -28.0034877 20.5381941
60.2146983 -27.6763141 20.6030086
60.1119101 -25.3675133 21.9566654
60.0609370 -26.7089214 21.2242175
60.0465350 -31.1059821 19.0164149
59.9554516 -31.6100717 18.8257154
59.7864911 -36.0698774 15.8753619
59.8935597 -35.7195884 16.0747524
60.3137910 -24.0544658 22.5612801
59.8977171 -23.6541387 22.9729190
60.2114350 -29.7466964 19.5673984
60.2447353 -26.2616612 21.3847086
60.3609234 -25.7625580 21.6080751
60.0924268 -36.5300328 15.0474114
60.2278225 -30.4363966 19.2367081
60.1844564 -35.2772921 16.1922984
60.1945892 -35.8665623 15.6406779
60.5022646 -33.6999670 17.1961505
60.5152883 -33.1948623 17.5508913
60.3358634 -24.7963797 22.1515130
60.3352971 -34.7459428 16.5184047
60.4465716 -29.1683879 19.7279826
60.3152700 -27.9975832 20.3808397
60.4512654 -31.5713994 18.5924862
60.4193546 -32.0576839 18.3564164
60.7851669 -30.8394413 18.7756475
60.2396429 -34.3382061 16.9373509
60.4813211 -34.1418497 16.8923531
60.6185272 -32.6952599 17.8290829
60.6053583 -32.2944447 18.1059558
60.3849292 -34.4302207 16.7478733
60.7408620 -26.7234836 20.8730306
60.6155321 -28.2684639 20.0954285
60.8710088 -25.2645276 21.6350406
60.5495535 -36.0300131 15.0334779
60.4909398 -36.4580713 14.5864496
60.5362281 -35.3163369 15.8242248
60.7145615 -35.5327465 15.3886611
60.8874932 -30.0207827 19.1092864
60.7442595 -29.4912513 19.4256194
60.4524836 -36.7252342 14.2874829
60.5577268 -27.3235794 20.6197985
60.6662743 -27.7354941 20.3438420
61.0541329 -24.4360976 22.0066700
61.1686744 -23.5962477 22.4004164
60.3639930 -23.1559966 22.9877923
60.8545691 -25.9815361 21.2370493
60.6635809 -34.8599851 16.1143467
60.6859215 -28.7425853 19.8208820
60.7519783 -34.3509503 16.4767280
60.7298240 -36.4786685 14.1829699
60.9001741 -36.5598276 13.7318308
60.9001964 -31.8948813 18.1526393
61.0562712 -31.3307121 18.3801726
60.9685071 -29.0485881 19.5333902
60.9317124 -33.8254906 16.7443361
60.9352589 -35.0217931 15.6582650
61.1124411 -36.5679972 13.1986104
60.8634390 -36.0625014 14.5430127
60.9176867 -35.7007943 14.9220927
61.1273162 -33.1945159 17.0615837
61.1750446 -34.4473831 15.9336068
60.8850941 -32.9371318 17.4730606
61.2002946 -28.4754783 19.7148304
60.9389059 -32.3275253 17.8586859
61.1812733 -32.6231308 17.4594987
61.0860288 -27.3145568 20.3773752
61.8407540 -24.8570945 21.4224178
61.7790297 -24.0423139 21.8977872
61.2050071 -35.2154486 15.0772855
61.1603111 -27.8754923 20.0433228
61.3370612 -36.5558900 12.4485167
61.2303726 -29.4376593 19.2235354
61.5579858 -30.3545147 18.6024141
61.3090508 -30.9282877 18.4501857
61.1335970 -36.0774286 14.0591059
61.1949116 -34.0036936 16.3268410
61.5065135 -29.7638346 18.9342238
61.2400286 -35.6378630 14.4911930
61.5093410 -25.6495979 21.1223513
61.3591522 -26.2420196 20.8578128
61.6626590 -26.7866179 20.4107184
61.3320544 -34.7377397 15.4458527
61.4614896 -31.5070376 17.9983899
61.3295473 -32.0923440 17.7148320
61.3980815 -31.1728045 18.2606187
61.5090504 -28.9179850 19.3498693
61.2890422 -36.1633748 13.5906376
61.4336282 -33.5307457 16.4813790
61.5631640 -36.0292457 13.1095136
61.5642183 -32.7262990 17.0363355
61.7989860 -32.9508446 16.5933073
61.6973266 -27.9945284 19.7370797
61.7580451 -28.4361150 19.4789022
61.6652258 -34.7142294 14.9765406
61.6253205 -35.1590253 14.4731905
61.7825724 -29.2911045 19.0374497
61.6712868 -27.4656378 20.0331416
61.6610646 -34.2987366 15.4539943
61.6404526 -33.8431671 15.9439761
61.6202690 -35.5957150 13.8231618
61.6571642 -32.3214307 17.2674377
61.8145093 -36.1283757 11.7690172
61.9346686 -35.7879885 12.4372980
61.7750958 -36.3845639 10.4147652
62.0815456 -35.9162278 10.9569076
61.7823303 -31.8326615 17.5137389
61.7039762 -30.9297889 18.1843080
62.0213859 -31.2763788 17.6967401
61.8461184 -33.3414227 16.1773264
62.0910674 -29.6591353 18.6833590
61.9809739 -30.5269416 18.2445105
62.2064210 -30.1393401 18.3318499
61.9101636 -32.5037390 16.8720335
62.1132441 -28.7288036 19.1622637
62.0238259 -26.0677505 20.6494275
62.2764304 -28.0368235 19.4394421
62.1208549 -27.6715551 19.7129976
62.0167851 -35.4283117 13.1270019
62.0632544 -33.8232405 15.3817972
62.1264279 -33.4049240 15.7410633
61.9127601 -35.0899324 14.0478471
62.0915443 -35.0852050 13.6507517
62.0583892 -34.6630290 14.3650286
62.0647259 -34.2163704 14.9285570
62.0837733 -25.4816059 20.9563561
62.0677397 -32.0946462 17.0427673
62.3023286 -27.1451883 19.9175887
62.4028705 -26.5279766 20.2169213
62.2386187 -32.9381153 16.0732269
62.1526241 -30.7712965 17.9498326
62.1222407 -35.9244645 10.3545580
62.1621162 -31.6708088 17.2808804
62.3790063 -35.3911929 11.6690379
62.4875985 -35.0188091 12.5139328
62.2451603 -29.1474778 18.8807808
62.3197407 -32.3935859 16.5015217
62.1341392 -34.8570682 13.9495702
62.2957684 -24.2423303 21.5681177
62.5038743 -25.1481235 20.9637918
62.6173839 -24.5907810 21.2371647
62.4739714 -23.6190166 21.8279622
61.8370436 -23.5010069 22.1596360
62.4708645 -30.8971889 17.5774116
62.4716133 -31.3355178 17.2326602
62.3973235 -34.8781124 13.2115614
62.2932203 -30.4356534 18.0794094
62.4503829 -34.5066525 13.7650529
62.4153987 -33.7470882 14.9062956
62.4960028 -34.0252221 14.3914120
62.5128299 -33.3458968 15.2224377
62.2940250 -27.7708173 19.5768233
62.4977872 -27.5858734 19.5767563
62.6374111 -29.6940245 18.3135010
62.6887828 -29.1862842 18.5913667
62.6266524 -35.1730995 10.8762877
62.5014529 -31.8035185 16.8232694
62.5099987 -25.6727729 20.6546243
62.5743419 -26.0815844 20.3901399
62.4834560 -30.5557009 17.8336240
62.5348389 -32.9947695 15.5989034
62.6787320 -30.1454198 17.9704707
62.9382953 -34.1933593 13.0019756
62.6974255 -28.3578392 19.0478768
63.0747676 -27.6854206 19.2079153
62.7684891 -24.1028238 21.4453489
62.7817139 -32.4365757 15.8518143
62.5460073 -28.8222283 18.8878775
62.7938136 -31.9731124 16.3222626
62.9314631 -27.1513332 19.6070299
62.7955049 -26.7655719 19.9003667
62.7999976 -34.7700343 11.8809203
62.9066154 -34.7269215 11.2813367
62.9659742 -34.4238468 12.2891814
62.8468469 -30.4973740 17.5427664
62.9509985 -33.2567059 14.5467576
63.0348474 -32.6769948 15.1700648
62.8381744 -31.4122178 16.7792998
62.8731027 -30.9451949 17.1380024
63.0178154 -24.8818249 20.8946224
62.9449710 -25.3943056 20.6225701
62.9941449 -33.6971544 13.7927448
62.8617331 -34.8661207 10.3973011
62.9944876 -26.2629874 20.0929865
63.2853881 -24.3206881 21.0962836
62.8154874 -31.7006260 16.5599864
62.8869459 -25.8296560 20.3926731
63.0010888 -34.6506611 10.7368929
63.0016848 -28.6564138 18.6910890
63.2181764 -28.1821359 18.8235734
63.0528331 -29.3512195 18.2232894
63.2109195 -28.9687011 18.3455050
63.0507916 -29.6811815 17.9964639
63.2670596 -34.1303982 11.6984211
63.1746054 -23.7474963 21.4627143
63.1440803 -31.8828858 15.9315094
63.2739142 -32.0700966 15.5199496
63.2106364 -29.9738888 17.6183600
63.2814020 -26.6601518 19.7205748
63.0960837 -31.5689221 16.3143221
63.2708222 -31.0545266 16.5700000
63.2015094 -34.3649536 10.3051346
63.3266717 -34.1553614 10.9091578
63.3574501 -30.4322410 17.0577765
63.3320734 -33.8645875 12.3794815
63.3747876 -25.6807897 20.2506166
63.3774251 -25.1183100 20.5876008
63.5783076 -26.9809328 19.3547811
63.6722669 -32.6898172 13.8217639
63.4642392 -32.5094275 14.5891430
63.6645257 -28.4346770 18.3302276
63.3939058 -33.4137939 13.2613992
63.4490326 -33.5446484 12.8092654
63.4052753 -24.7244071 20.8122060
63.5678992 -26.1805188 19.8607128
63.5982752 -29.2448346 17.8086590
63.6791587 -27.7926829 18.7507216
63.7213290 -27.3502935 19.0197453
63.5987371 -31.9816433 15.0618255
63.6356100 -31.3419178 15.7650076
63.8341978 -23.7976089 21.1268738
63.6495948 -24.5133825 20.8173450
63.8159439 -24.2472216 20.8854489
63.8255700 -30.5606760 16.3345039
63.6363775 -33.7256342 10.3344349
63.6813343 -29.8174247 17.2619317
63.6496395 -33.5079208 11.9776065
63.8121888 -33.4059931 11.2267947
59.0155460 -22.5661080 23.9315871
58.4929250 -22.8732266 24.0968186
59.7514138 -23.2998691 23.2199226
59.7073101 -22.8236616 23.4619286
59.6444644 -22.2468600 23.7440113
60.1859465 -22.4387199 23.4010052
60.0967631 -21.7743255 23.7270258
59.2254288 -21.6339733 24.1991282
62.7064332 -9.5916642 14.9106728
62.7101436 -9.6235024 14.9514051
62.7012998 -9.6072126 14.8685332
60.6111623 -22.0871456 23.3637244
60.6329739 -21.6995906 23.5200450
60.5196990 -21.2842245 23.7390250
59.8657951 -21.0319199 24.1233185
60.6959686 -22.5435477 23.1225044
61.1932240 -22.8248369 22.7728784
62.7235845 -9.5861666 14.9626471
62.7513751 -9.6042166 15.0562068
62.7333075 -9.6707502 15.0219528
62.7149418 -9.6623404 14.8953749
60.9290898 -21.8535196 23.3278442
61.1251332 -22.2062264 23.0892599
61.0028878 -21.4928892 23.4515257
61.0287227 -20.9925137 23.6494150
60.4855269 -20.7144599 23.9787810
62.7100989 -9.6030440 14.7763472
61.2632222 -21.7725877 23.2243892
62.7337098 -9.7222598 14.9895782
62.7095103 -9.5735099 14.8197850
61.5533181 -22.3934427 22.8245091
61.6294853 -23.1492259 22.4272348
61.8115589 -22.7203090 22.5621127
61.6188422 -21.9544768 22.9991134
60.9911196 -20.4290953 23.8964260
61.5184456 -20.6828043 23.5982966
61.4573658 -20.1220457 23.8653217
60.9316118 -19.8891386 24.1435263
60.4931898 -20.1706141 24.1857320
62.7696291 -9.6824355 15.1530197
62.7208054 -9.7348168 14.8696462
62.7126843 -9.6702725 14.7918565
62.7476424 -9.7206607 15.0886765
62.7600104 -9.7708041 15.0859756
62.7407283 -9.7691882 14.9774076
61.6205782 -21.3431045 23.2712608
62.7127439 -9.7029172 14.7585748
62.7205819 -9.6433917 14.6620004
62.0079972 -22.2464055 22.7080919
62.7799258 -9.7438367 15.1948379
62.8304631 -9.7199008 15.3464545
62.8286079 -9.4834613 15.1058324
62.7469495 -9.5476955 14.9880908
62.8069043 -9.6234195 15.2120125
61.9917884 -20.3475934 23.5901363
61.9143546 -19.7912063 23.8763951
61.3627657 -19.5795707 24.1412073
61.9851947 -20.8507273 23.3586971
62.1315278 -23.0934434 22.2433154
62.3438470 -22.5932542 22.4049576
62.8213733 -9.8152924 15.3000215
62.7656579 -9.8417941 14.9662737
62.7182722 -9.7549381 14.7157414
62.6415238 -19.9789088 23.5740673
62.2421205 -19.4390900 23.9637960
61.7712848 -19.2621313 24.1792593
62.1178001 -21.7436459 22.8994247
62.3620600 -21.2220233 23.0532512
62.5773221 -22.0385902 22.5816183
62.3999201 -20.6434280 23.3160872
62.6882017 -22.9622591 22.0792573
62.4897815 -21.6323100 22.8103343
62.8347471 -22.4735569 22.2653616
63.1153509 -23.2486315 21.7552911
62.8841147 -21.5097554 22.7227099
62.9882142 -20.8002198 23.0409540
63.3326620 -22.0334511 22.2863853
62.8874153 -9.9739917 15.3839020
62.9739538 -9.8124389 15.8221796
62.7504513 -9.8621380 14.4962287
62.8079399 -10.0152045 14.9065275
63.2226989 -22.7213278 21.9816975
63.4649843 -20.1837495 23.2081618
63.4006485 -19.4031391 23.6696452
62.7027601 -19.1963296 23.9834357
63.5124892 -21.2941878 22.5998480
63.6036247 -20.7310766 22.8649583
63.5619834 -23.3888272 21.4849599
63.5618716 -23.0126418 21.6854718
63.7892038 -22.5516483 21.8261443
55.8769926 -5.5728001 21.5285942
55.9370555 -5.5899736 21.6306914
55.9362359 -5.6278817 21.5489082
55.9378006 -5.4298285 21.5250030
55.9468046 -5.5961679 21.4354973
55.8814481 -5.5081486 21.4216076
56.0904033 -5.6948974 21.5653684
56.0389571 -5.4516788 21.7071399
56.0852438 -5.5951094 21.7373241
55.9725128 -5.4672877 21.2244112
55.9247732 -5.3795339 21.3362295
56.0615733 -5.6343004 21.2991722
56.0290739 -5.1958961 21.1033057
56.1196990 -5.5351742 21.0058000
56.0172498 -5.3555998 20.9589023
56.2369972 -5.4546632 21.8313411
56.1689362 -5.6609274 21.7303243
56.2279336 -5.6060888 21.8053423
56.1498627 -5.3518927 21.7471402
56.1215766 -5.7468573 21.3688090
56.1881661 -5.7103005 21.1867522
56.0935512 -5.1475596 20.7871441
56.1694913 -4.9374122 21.0148711
56.1220422 -4.9771578 20.8507590
56.3352481 -5.7033412 21.7563845
56.4029701 -5.5631110 21.8746010
56.3414320 -5.7768128 21.3796385
56.3041121 -5.7763802 21.6001719
56.2767908 -5.2842302 21.7767004
56.4483739 -5.2849865 21.8627881
56.5015711 -5.3974264 21.9123866
56.1829433 -5.3231730 20.7082443
56.3341081 -5.6241076 20.9636670
56.4086251 -5.7186377 21.1014673
56.4860031 -5.1095122 21.7597205
56.5145537 -4.8708031 21.5469003
56.3713536 -5.4623033 20.7381472
56.2817864 -5.0736736 20.5238834
56.3698225 -5.2224551 20.4865746
56.3529991 -5.3431448 20.5684770
56.3114099 -4.7968728 21.1088471
56.3489273 -4.6912786 20.7372066
56.2236905 -4.9273376 20.6330158
56.4928353 -4.7587771 20.3357413
56.4902276 -4.5671430 20.9797621
56.5446727 -4.6602935 21.2611463
56.5957278 -4.4835382 20.4288457
56.6150174 -4.4097682 20.7381696
56.5432794 -4.4737495 20.6033662
56.5272346 -5.0301473 20.2967580
56.7273423 -4.6511930 20.0468339
56.6713214 -4.8273895 20.1055184
56.8610989 -4.4221962 20.0972240
56.5207414 -5.6636455 21.8925532
56.5997884 -5.7795276 21.6110740
56.5432087 -5.7276888 21.8068827
56.6143245 -5.7459893 21.1800560
56.6360392 -5.7894117 21.3608462
56.7036159 -5.5943830 20.8180565
56.7694940 -4.8603322 21.7704549
56.8616390 -4.7190706 19.9192688
56.9110438 -4.5485129 19.9133195
56.8822920 -4.5130500 21.5143431
56.6366166 -5.2884193 20.4156805
56.8241477 -4.3379837 21.0359450
56.8589903 -4.9693305 20.0286154
56.6933118 -4.3463265 20.5307603
56.8266809 -4.2876038 20.3487556
56.9634847 -4.1196649 20.5656905
57.1027473 -4.5560482 19.7242126
56.9953620 -4.7594784 19.7872519
57.0999570 -4.1075638 20.1693662
57.0402257 -4.4016792 19.8168866
57.3031567 -4.1793697 19.8106710
57.1812652 -4.3644388 19.7091606
57.1290404 -4.1648480 21.2697778
57.2203957 -3.9829020 20.9182538
56.9969974 -5.1914332 20.1418083
57.1453311 -4.8475200 19.7493043
57.1375117 -5.0474210 19.9169479
57.0513532 -5.3952835 20.3663893
57.0770241 -5.7135243 21.2417636
57.0231192 -5.7108272 21.6683373
57.2971851 -4.6510315 21.9510105
57.3335364 -5.5677681 20.6232890
57.1439117 -4.6969960 19.6630899
57.3257245 -5.2331877 20.0107582
57.3926456 -5.4147881 20.2656779
57.2332926 -5.5917413 21.8646806
57.3451295 -4.1803825 21.6104481
57.4358180 -4.9519930 19.7419971
57.4830659 -3.8884566 21.2350786
57.4696399 -4.6145725 19.5774883
57.3170446 -3.8840808 20.3063283
57.4051850 -3.7935793 20.5706879
57.5001985 -3.8703906 20.0175829
57.3716946 -4.3594395 19.5991937
57.7293448 -4.1351807 19.5230749
57.7739328 -3.8631249 19.7117198
57.6189458 -3.6767365 20.8413117
57.4688017 -5.6622867 21.6768514
57.6392636 -5.6625740 20.9151786
57.7754118 -5.6769960 21.2956816
57.6966070 -3.6047550 20.2603545
57.4852638 -5.4814932 22.0043659
57.4840903 -5.5698520 21.8767300
