# 3D Systems, Inc.
# New Model
57.2637580 -26.7703924 28.6268257
57.4920066 -24.1185315 28.8571659
57.6583520 -18.6999384 30.0106704
57.6763675 -19.5739958 29.5900144
57.8762665 -19.2093644 29.6222568
57.6162674 -23.2678819 28.6921971
57.4795417 -21.6739550 29.0280469
57.7628836 -21.1754218 28.8704392
57.3300347 -15.4338200 31.4279385
57.5370193 -22.1033525 28.8582817
57.7747263 -17.1932187 30.6611415
57.7839948 -17.7584570 30.3685050
57.6319769 -16.5784340 30.9547223
57.7817746 -15.8831347 31.1972816
57.8414090 -20.2811137 29.1458443
57.7849634 -20.6687432 29.0259849
57.7988885 -14.4555820 31.5734483
57.7876307 -15.1071735 31.4172208
57.8583591 -13.7673588 31.6980034
57.6263294 -27.0189624 27.9857107
57.6639473 -26.1966214 28.1730164
57.7530228 -22.5383732 28.5109617
57.9886250 -19.7236538 29.2871092
57.6498471 -25.4794490 28.3707976
57.8337871 -24.7303043 28.2311924
57.6843433 -21.7200778 28.7381057
57.7764325 -22.0251027 28.5525993
57.9485632 -23.8405261 28.1590037
58.0006018 -23.0652429 28.1242058
58.0224954 -22.1316144 28.2660257
57.9857565 -21.6574129 28.4567289
58.0734983 -22.5465354 28.1029474
58.1661128 -25.5123582 27.6266374
58.1378154 -20.5985177 28.7603606
58.4882163 -21.1393628 28.2785930
58.0551401 -26.4657773 27.5446288
57.9800159 -27.0959921 27.4664760
58.4234744 -24.4235117 27.4969209
58.1886135 -20.1108456 28.9508328
58.3571903 -16.5709071 30.8534354
58.2903251 -18.6876170 29.6885017
58.4190860 -19.2516707 29.2998049
58.0388419 -18.1480926 30.0770216
58.3182685 -17.6066421 30.2891117
58.5144162 -17.1409175 30.5353571
58.4953576 -15.3277414 31.3521102
58.7234870 -15.9425344 31.1254952
58.4902056 -19.7489765 28.9680921
58.4027469 -23.4572217 27.6280232
58.3549179 -22.7751918 27.7724341
58.4170558 -14.7020277 31.5259174
58.3026372 -21.8031239 28.1237029
58.3437495 -22.2537015 27.9261228
58.4692135 -14.0634710 31.6629149
58.5795194 -20.2407129 28.6503322
58.4711470 -20.6324812 28.4983721
58.7575249 -18.1455202 29.8775807
58.4141240 -26.9074719 26.9760173
58.4899001 -26.0844491 27.0838886
58.6859956 -25.1461994 27.0556547
58.5491657 -25.6001689 27.1160360
59.0308048 -23.7539075 26.9982554
58.9638911 -24.5749038 26.8848352
58.7928817 -22.9464844 27.3600165
58.6482286 -22.4376246 27.6146829
58.7543994 -21.8747258 27.7615711
58.9945838 -16.8974437 30.6323972
59.1417253 -16.4267942 30.8893863
58.7651655 -20.5816515 28.3636320
59.1706261 -21.3191882 27.7638379
58.9807816 -19.8207553 28.7095327
59.1157861 -20.2288087 28.4057744
59.0443462 -18.8724026 29.3336120
58.8674061 -19.4106326 29.0106963
59.1712482 -17.5031833 30.2474182
59.0556078 -14.8844868 31.5247923
59.2868514 -15.4929273 31.3474201
58.9172840 -14.3795032 31.6329114
59.1586195 -13.8521092 31.7527838
58.6833879 -13.2391583 31.8012983
58.8988066 -26.3772123 26.5629552
58.9039028 -27.1078162 26.3708681
58.8648021 -25.6910212 26.7499555
59.0753146 -22.3861691 27.3344815
59.3262874 -16.0068497 31.1118290
59.3672246 -22.9441356 26.9469079
59.1763668 -25.1386277 26.5565421
59.7117282 -18.3061548 29.6392441
59.3574718 -21.8469016 27.3935460
59.5348626 -24.4683772 26.3999011
59.3947731 -25.8577317 26.2028873
59.8418638 -23.5635024 26.4392570
59.6140623 -22.3251320 27.0232204
59.3226478 -26.6705211 26.0635316
59.6823134 -21.3982426 27.4484456
59.9144101 -21.8263734 27.1036234
59.2909828 -27.2785407 25.9268414
59.6433356 -20.1883409 28.2587335
59.4254546 -19.8720321 28.5287108
59.3571030 -19.4463972 28.8469549
59.5160313 -14.4178653 31.6930674
59.6621074 -16.2961688 30.9733637
60.1112321 -17.5947528 30.1144719
59.7912297 -19.0707427 29.0595088
59.7246997 -15.0028840 31.5850936
59.8187223 -15.8799626 31.2215313
59.9189363 -15.4597014 31.4454138
59.6256256 -25.1725707 26.1463150
59.9449202 -22.7665212 26.6463272
59.6235953 -27.0375144 25.6824102
59.8824322 -19.6849629 28.5825022
60.0960739 -22.2398378 26.7983824
59.8156005 -26.4190342 25.6950725
60.0510016 -25.6038234 25.7266443
59.9663891 -24.8875413 25.9563066
60.1792969 -24.3120883 25.9816032
60.4031943 -18.8210793 29.1813891
60.6960207 -18.1623064 29.6534430
60.0674562 -27.0418357 25.3104530
60.3376999 -14.5776086 31.7892283
59.9500239 -21.0603587 27.5393929
60.2274649 -16.3067430 31.0126394
60.6202632 -21.8309611 26.7950725
60.4441464 -22.5062557 26.4914576
60.0895919 -20.0984348 28.2307118
60.1832978 -21.3807132 27.2415150
60.3810623 -23.0864938 26.2708329
60.5357178 -23.7015709 25.9626489
60.3744537 -20.9612977 27.4814721
60.2785237 -19.3329528 28.8038105
60.5201498 -15.7480221 31.3698985
60.2832958 -15.2007304 31.5989479
60.4234338 -26.3540931 25.2480675
60.6334507 -21.2765951 27.1696858
60.4925230 -19.7887179 28.4233168
60.4174361 -20.2422217 28.0680489
60.8153529 -17.5595842 30.1059391
60.6394708 -20.5660108 27.7605858
60.5944805 -27.0061139 24.9226559
60.4413263 -24.9653254 25.6286599
60.6764965 -25.6376285 25.2923407
60.7576855 -22.8049662 26.1881463
60.8265139 -23.2273340 25.9755664
60.9292090 -22.3715380 26.3263751
60.7960150 -24.3634265 25.6007295
60.9562360 -16.3110718 31.0801454
61.0338971 -17.1381757 30.4489639
60.9139577 -20.1357249 28.0878749
61.2631366 -23.7011407 25.5787019
60.8057976 -19.2907825 28.7788995
61.1346960 -18.7698733 29.1522909
60.9252267 -20.9309179 27.3932181
61.1143410 -21.3383380 27.0079989
61.1426979 -21.9925381 26.4618695
61.2317510 -21.6763280 26.6805794
61.0602126 -19.7021384 28.4254812
60.9524623 -15.1999509 31.6719897
60.8241074 -26.6029313 24.8923618
60.9355159 -26.1924136 24.9564629
61.2567253 -14.5606808 31.9353156
61.2688884 -20.5131266 27.7145635
61.5108497 -15.8619620 31.4011425
61.2249747 -17.8462807 29.8572257
61.4765920 -18.2532351 29.5244735
61.6392717 -13.9734624 32.1492888
61.4881031 -13.2160792 32.2247557
61.2564273 -22.8719059 25.9331819
61.0018484 -25.0460226 25.2719410
61.3999031 -17.4868889 30.1552434
61.2889901 -16.7530011 30.7841878
61.2198152 -25.6872997 24.9498095
61.0686168 -26.5220962 24.7636214
61.4359155 -24.4920049 25.2072681
61.4235625 -22.2930331 26.1675511
61.6223104 -19.9627206 28.1510707
61.5542494 -20.9493935 27.2769555
61.6407953 -17.1263423 30.4801781
61.4179261 -26.3489075 24.6219989
61.5751147 -16.4150130 31.0661867
61.4678115 -19.3254109 28.6865644
61.5282208 -25.1661409 24.9408409
61.8300140 -23.1772047 25.5395584
61.8486330 -22.5802958 25.8454084
61.8366562 -15.1751246 31.7724980
61.9616695 -18.7717099 29.0906485
61.7601797 -21.4250740 26.7833453
61.5768209 -21.8734592 26.4106840
61.6543666 -24.0606181 25.2349656
61.9176999 -23.7431992 25.2378806
61.7864393 -17.8277213 29.8627187
62.0515868 -14.5536158 32.0460685
62.2604117 -14.0831638 32.2255194
62.0799288 -13.5537926 32.3093273
62.0904788 -18.2010513 29.5473244
61.8063621 -25.7443674 24.6107765
61.8743412 -24.8304233 24.8676687
62.1029325 -24.3122205 24.9310769
61.9660243 -20.5094367 27.6349243
61.8611425 -22.1435148 26.1147078
61.9333573 -16.7678408 30.8121629
61.9425885 -17.4690355 30.1775020
61.9671009 -25.2413061 24.6884078
62.1909238 -16.3349565 31.1573185
62.5448748 -15.7637782 31.5274298
62.2194894 -19.4484759 28.5253506
62.2944944 -17.1790272 30.4587632
62.7153441 -15.0226029 31.9147706
62.0346628 -26.3415724 24.2911838
62.2622073 -25.5215261 24.4561285
62.2812696 -25.9160865 24.3157800
62.4708869 -26.7730169 23.9230562
62.6153722 -17.7639611 29.9225356
62.4522977 -20.0611353 27.9902238
62.4660812 -24.9853916 24.5354977
62.3822585 -22.8172354 25.5171861
62.4050274 -22.2309027 25.8969720
62.2991286 -20.9805612 27.1402393
62.1195324 -21.7953287 26.3350885
62.4666885 -21.3983860 26.6664382
62.6237243 -18.4303354 29.3381177
62.7212003 -18.9975854 28.8612302
62.3859018 -23.3819056 25.2081566
62.7441779 -21.7491072 26.2330696
62.6286343 -14.4265639 32.1581401
62.3785257 -23.8421019 24.9917191
62.6260415 -24.1128113 24.7734003
62.6466945 -24.4739465 24.6237591
62.4996759 -26.2348372 24.0997616
62.5950620 -20.5502585 27.5352541
62.6268238 -16.7756248 30.8374539
62.9425198 -22.5147307 25.5250316
63.0387068 -22.0665745 25.8436501
62.6024529 -14.1222468 32.2634801
62.5873953 -13.8100386 32.3275402
62.9500896 -16.3501203 31.1812032
62.8289357 -25.7333983 24.1280701
62.9344583 -23.0577271 25.1867846
63.0704686 -19.5676330 28.3672325
62.9282072 -23.6821175 24.8575490
62.7441630 -21.1403929 26.9076899
63.2014573 -21.3021915 26.6503468
63.0253032 -17.2066409 30.4578785
62.9595518 -24.7056708 24.4123079
63.1837994 -25.1036100 24.1949782
62.9106537 -26.3883919 23.8591172
62.9671291 -26.8140603 23.6733034
63.2238910 -20.2927347 27.7198516
63.0266592 -20.8579414 27.1773357
63.3131340 -15.5188907 31.7027643
63.2904544 -15.9909837 31.4307027
63.3333325 -21.7258614 26.1174999
63.4327158 -22.2516749 25.5832449
63.4441674 -21.9657328 25.8266423
63.2047579 -14.5881046 32.1265161
62.9447699 -14.1278692 32.2738141
63.4260923 -15.0496373 31.9454409
63.1017461 -13.6497542 32.3818512
62.5549331 -13.2706743 32.4068479
63.1294325 -24.2726225 24.5155748
63.1282032 -18.2084106 29.5097921
63.3317828 -17.9005750 29.7860559
63.3275136 -17.5539721 30.1235523
63.2223338 -18.6941326 29.0890876
63.2067397 -19.1023126 28.7478585
63.3618161 -16.7853534 30.8503620
63.5184646 -22.7024872 25.2301395
63.4891391 -23.2788827 24.8786118
63.4254292 -26.1515398 23.7306096
63.6349693 -25.5505797 23.8721892
63.2906184 -26.6020726 23.6135088
63.6763647 -16.3773932 31.1739501
63.5919794 -23.8404367 24.5517641
63.8459027 -18.3063280 29.4029843
63.3803159 -24.6882029 24.2609102
63.8378188 -19.8800229 28.0501693
63.7862757 -19.1512890 28.6725126
63.4628385 -20.9830664 26.9911420
63.8965890 -21.5017144 26.2915902
63.9598966 -21.0411698 26.8463250
63.7783408 -24.3775602 24.2527779
63.9620125 -15.8884935 31.4939544
63.9166012 -17.2279011 30.4432884
63.9617890 -16.7495906 30.8868587
63.6578500 -20.6981469 27.2814557
63.8927817 -20.3471202 27.6239812
63.5539815 -14.1056906 32.2735198
63.9558658 -14.7154033 32.0688635
63.7013987 -21.8054764 25.9505846
63.7262166 -22.0231563 25.7205348
63.8281107 -24.9378327 24.0242146
63.8126582 -26.6143940 23.3918559
63.9672205 -22.2847965 25.4541580
63.9692619 -22.9522064 24.9339137
63.9585108 -22.6231236 25.1658447
63.9322400 -15.3311491 31.8095759
63.7453720 -17.7392364 29.9397465
64.0814230 -26.0033328 23.5346220
64.0266761 -23.4463662 24.6163309
64.3542036 -20.5900371 27.3108594
64.1941056 -23.9404272 24.3156143
64.5225942 -16.4381322 31.1044846
64.4529536 -25.3465064 23.6660615
64.2027333 -26.8937573 23.1139138
64.2288998 -27.2357520 22.9486618
64.5214841 -26.4491178 23.1839214
64.3079728 -17.7629534 29.8954193
64.2921105 -14.0701951 32.2509073
63.8201237 -13.4196198 32.4190557
64.5135194 -24.5107375 23.9820592
64.3385425 -20.1616306 27.7513862
64.4289255 -22.5867126 25.1098722
64.4630268 -23.1098104 24.7055478
64.4180477 -21.2461296 26.5173204
64.6867752 -20.9262986 26.8596970
64.6292269 -18.8133959 28.8944561
64.6290481 -18.2084050 29.4426493
64.6455809 -19.6315702 28.1779822
64.3930882 -15.5794024 31.6686854
64.5911843 -15.9067195 31.4636417
64.3190742 -16.8901812 30.7639521
64.7281855 -17.3180588 30.3193070
64.4340813 -17.0907285 30.5766482
64.5258054 -15.1552092 31.8628959
64.0856847 -21.8576584 25.8530434
64.6664426 -22.0132433 25.6064460
64.7344142 -14.6080572 32.0566185
64.5384416 -21.5579197 26.1202417
64.4793808 -23.5428624 24.4330503
64.6414086 -25.9005614 23.3734716
64.6293759 -27.0099621 22.8900220
64.7583455 -23.8712020 24.1942089
64.8916811 -20.2252362 27.6000295
64.9698600 -20.6027329 27.1870177
64.9958923 -17.8033058 29.8055448
64.9670586 -22.8247754 24.8079412
65.0900528 -22.3668404 25.1844004
64.7330731 -16.9168394 30.7145547
64.9777278 -23.3493354 24.4348254
65.0917813 -27.2870492 22.5755293
65.1048496 -13.9822690 32.1930237
64.5637587 -13.5271037 32.3668644
64.9355203 -15.5555541 31.6283368
65.3705224 -24.8941034 23.5798601
65.0939420 -25.6044175 23.3475342
65.1963726 -24.1703261 23.9445306
65.2248338 -26.6347844 22.8363369
65.0601685 -26.1012781 23.1397897
64.9588034 -21.2153941 26.4450330
65.3852150 -20.8352897 26.8075261
65.4182509 -18.3516350 29.2363241
65.4816478 -19.1787779 28.4633283
65.1240349 -16.0151664 31.3427597
65.0855154 -16.6956857 30.8753271
65.2190819 -16.4043736 31.0822148
65.1595667 -21.5590727 25.9955619
65.4002950 -21.9344404 25.5512167
65.1780814 -15.0657985 31.8301506
65.2580634 -17.0190241 30.5686984
65.4920712 -19.8634267 27.8368127
65.3998554 -17.4171049 30.1602483
65.2012601 -23.7251054 24.1585486
65.4279590 -22.6124600 24.9015503
65.4860735 -22.9931381 24.5902110
65.3186291 -14.5803504 32.0016406
65.5363202 -17.7977644 29.7642928
65.6835064 -22.2761352 25.1668096
65.5522496 -23.4457087 24.2633615
65.4616356 -20.3735102 27.3273755
65.4012188 -25.8625858 23.1301188
65.4785857 -26.1679124 22.9631718
65.4920638 -21.2103166 26.3245758
65.6431243 -25.5264807 23.2065041
65.5532032 -23.8388963 24.0289140
65.6691343 -16.6457929 30.8401994
65.8566207 -21.5013828 25.9034447
65.9702718 -26.3310578 22.7122139
65.9498870 -22.6467494 24.8018783
65.6751022 -16.1737408 31.1756879
65.7742172 -15.5468220 31.5054767
65.8863187 -17.0957446 30.4180663
65.7487437 -14.8809552 31.8185687
65.9807995 -17.5457671 29.9720988
65.7936037 -14.2986327 31.9984108
65.9478605 -21.9135042 25.4559536
65.7986030 -24.2122933 23.7953551
65.8885315 -13.4538366 32.1570709
65.1023909 -13.2618928 32.3606096
66.1045834 -18.7692847 28.7478622
65.9826249 -19.5674710 28.0218050
66.1419109 -19.2024745 28.3298660
66.0935938 -23.1424272 24.4013201
65.9256279 -17.9587565 29.5656733
66.1595389 -18.2958115 29.2022713
66.1057979 -25.1654275 23.2430231
66.1698282 -24.6243961 23.5037208
65.7312199 -25.9199962 22.9929090
65.9892187 -20.5220561 27.0204693
65.9569874 -20.1157965 27.4884161
66.2962124 -22.2032536 25.1209084
66.0444051 -23.6867703 24.0405072
66.0615265 -20.9849104 26.4447741
65.9474358 -19.8533367 27.7639199
66.1595017 -25.7170405 22.9515452
66.1009476 -16.3578875 30.9898984
66.4197579 -16.7073179 30.6569934
66.1327466 -16.0116982 31.2012415
66.4765760 -24.0910929 23.7225760
66.5104836 -21.6884427 25.5566984
66.5706173 -17.8676974 29.5710210
66.1987811 -14.6613857 31.8065733
66.4536953 -14.1595965 31.8730958
66.7247698 -22.6713847 24.6496834
66.8127090 -23.4232936 24.0776278
66.5083975 -15.7355443 31.2688947
66.5756837 -16.1968246 30.9899915
66.1904737 -15.0643066 31.6581316
66.4272606 -15.3299514 31.4873271
66.5489510 -17.2602516 30.1561169
66.7694584 -14.8477247 31.5865204
66.3049221 -19.8277533 27.6983902
66.5064007 -19.4512177 28.0192122
66.6661710 -19.0323927 28.3968635
66.8255091 -18.4935182 28.9084520
66.4638653 -20.1813225 27.2771847
66.5619895 -20.5873698 26.7772954
66.4144680 -21.2831050 26.0031782
66.7289719 -20.9545586 26.2922198
66.7384416 -25.3423844 22.9633618
66.5566325 -24.8864684 23.2625473
66.7162910 -24.5013535 23.4335791
66.9741780 -22.0483616 25.1221936
66.9346824 -21.2923791 25.8580614
67.1683401 -21.6031801 25.4852455
55.8584705 -12.8618171 33.8066630
55.8937900 -13.1784789 33.6380787
55.9219047 -12.9428590 33.5282199
55.7970963 -12.7402125 34.2717655
55.8510758 -12.2971237 33.9636616
56.0037121 -12.5990845 33.3991051
56.0068861 -13.1261209 33.3077647
55.8206588 -12.9871052 34.7110704
55.7962582 -12.1313725 34.8075330
55.7164997 -9.7418763 35.5170481
55.7219908 -8.9985207 35.5524048
55.7179675 -9.3914894 36.1424685
55.7782799 -9.3419915 34.9914357
55.7296537 -10.5462046 35.3779383
55.7586811 -9.9990275 34.9289067
55.7550602 -10.1757320 36.1334495
55.7038262 -8.7436549 36.0866338
55.7576641 -8.1435274 35.6052555
55.8085404 -8.6555351 35.0295231
55.7409935 -8.9292265 36.7524065
55.7058975 -8.2590869 36.4372954
55.7627529 -11.1260377 34.7918570
55.7607934 -10.5110127 34.7663574
55.7750538 -11.3851046 35.4970545
55.8755249 -11.4776278 34.0538174
55.8415912 -10.7020671 34.2969857
55.7858646 -10.8762430 36.0346101
55.8187664 -9.7428290 36.8265621
55.7183586 -7.4535408 36.3039821
55.8111817 -7.3125674 35.5835743
55.8007844 -6.6811731 35.8968116
55.6970276 -6.6544823 36.6038904
55.6656197 -7.2135506 37.0888934
55.6963347 -7.8656245 36.9802490
56.0006984 -11.9551336 33.5197747
55.9187196 -12.9118869 35.4918279
55.8649898 -12.0866811 35.7135125
55.8213443 -10.1966327 34.4844237
56.2688261 -12.9256882 32.8500643
56.3174933 -12.0700253 32.9271890
55.8613092 -9.6775247 34.4853699
55.9173152 -9.0123489 34.4909392
55.8912568 -11.5251923 36.2667665
55.8408983 -8.1710024 35.0265130
55.9246391 -7.6169451 34.9408686
55.9990741 -10.7991863 33.7496176
55.9661016 -10.1156300 34.0074971
55.9144728 -10.7245902 36.8946344
56.1324954 -11.3249524 33.3512388
56.0147017 -12.4650244 36.5036353
55.9484027 -8.3190110 34.5891602
56.0089014 -9.4273966 34.0705030
56.1538674 -10.3700710 33.4715620
56.1437607 -10.8137224 33.3911106
55.7837710 -5.3193034 36.2862796
55.7869822 -5.9951800 36.1486636
55.8983907 -5.4567475 35.7619338
55.6690358 -5.9461710 36.8179493
55.9252165 -6.0035340 35.5127640
55.9443086 -6.7390366 35.1969674
55.7980090 -4.5331446 36.3940448
55.9485368 -4.8638964 35.7288718
55.6410402 -5.2425954 36.9732268
55.9276566 -3.6700647 36.1931846
56.0395680 -4.1949768 35.6547385
55.6898676 -3.9327522 36.9498990
55.5952080 -4.6135369 37.2117050
56.0066774 -11.6078546 36.9547717
56.1814941 -9.6642245 33.5805491
56.6880219 -12.5450455 32.4046127
56.5344468 -13.1090386 32.4393138
56.3556701 -10.7661728 33.0479257
56.4069115 -11.3954414 32.8881405
56.1876409 -8.6943042 33.8499695
56.3670546 -10.0788660 33.1367068
56.1096705 -7.8312177 34.2778601
56.1885349 -6.9247172 34.3783423
56.0664535 -5.2947793 35.2046154
56.1057031 -6.0485434 34.8602720
56.6189475 -11.7085790 32.5908326
56.5899312 -12.0890187 32.5507894
55.9829623 -2.9579464 36.3090895
56.1048612 -3.2565279 35.8257219
55.7650924 -3.1923638 36.9078405
56.1310910 -3.6651848 35.5818011
56.1261028 -4.6050749 35.2436677
56.2207252 -2.7123811 35.7986763
56.0452081 -2.4144826 36.3824777
55.8479242 -2.4808075 36.9257517
56.5220192 -9.3313837 33.0647081
56.3294664 -3.9699292 34.9884965
56.2345758 -5.4805409 34.6495062
56.2778078 -4.8546377 34.7515941
56.6959940 -11.1108823 32.6024219
56.3530140 -6.0148151 34.2162065
56.3833416 -7.6667015 33.6961448
56.5724373 -8.3657568 33.1735201
56.2630780 -3.2935822 35.4147404
56.6142946 -6.6793184 33.5039049
56.7635521 -10.2699455 32.6604098
56.1918952 -2.1051744 36.1596718
56.4346611 -2.0633773 35.6282368
56.2820174 -1.5386413 36.2362824
56.0030304 -1.7996933 36.8051454
56.4350039 -5.2930168 34.2266373
56.5385781 -2.9091523 35.0090414
56.3717149 -0.9787405 36.3081880
56.5964468 -1.2373345 35.6860161
56.1354235 -1.0410931 36.8470810
56.5400310 -4.5958464 34.2565924
56.6297024 -5.7377215 33.6996801
56.7312352 -7.5635398 33.0884047
56.7769744 -3.7494965 34.1530070
56.8108745 -8.8059213 32.7564590
57.0088886 -9.4412034 32.5258970
56.5556958 -0.6047760 36.0939801
56.3331135 -0.4476550 36.6767570
56.7535609 -13.0419619 32.2384462
57.1747348 -12.9153822 32.0255607
56.8121262 -1.8953901 34.9210389
56.6559248 -5.1110596 33.8241830
57.7676035 -10.7999211 22.3008934
57.6924197 -10.5561838 22.3621521
56.8079501 -12.0101161 32.3654525
57.2610646 -12.0920977 32.1115516
56.9215231 -8.1647336 32.7245742
56.9778569 -2.7083107 34.2311487
56.6494279 0.1256967 36.2828858
56.8749867 -0.4630595 35.5145633
56.9890030 -11.5643404 32.3139466
56.8420887 -4.6064532 33.6632244
56.9321029 -6.9990046 32.8965373
56.8972975 -6.0301851 33.1520289
56.9162033 -6.5477202 32.9952538
57.0439957 0.3104269 35.5959907
56.9654517 1.0154619 36.1040197
56.5159023 0.9323990 36.9667783
56.3221462 0.1711856 37.0191857
57.1975708 -10.9372493 32.2934873
57.0638403 -7.5393780 32.6405019
57.8828007 -10.6103411 22.6296335
57.9206087 -10.7857259 22.5667432
58.0285639 -10.8768810 22.4767737
56.8986572 -5.3052036 33.3379395
57.4946739 -10.1741357 32.2473645
56.9006912 -1.1175674 35.1138674
57.8376912 -10.3327064 22.5221608
57.1764335 -8.7102912 32.4313082
57.5673692 -9.2983944 32.2278999
57.8150079 -10.0615667 22.3254096
57.0837706 -4.0891329 33.4403142
57.2098233 -3.3411132 33.5384794
57.2823584 -8.0201738 32.3874503
57.1430363 -1.2936047 34.5660783
57.1579672 -1.9478747 34.2345871
57.2985522 -6.9838064 32.4812159
57.3128834 -7.5465897 32.3894210
57.0577867 -6.7116912 32.7599831
57.1392924 -6.3418397 32.7281319
57.2591983 -5.5861939 32.7330381
58.1414476 -10.7476236 22.7518603
58.0324568 -10.3607364 22.7700807
58.1116043 -10.5242962 22.8634831
57.1881570 -4.7401111 33.0520831
57.1264215 -0.7056633 34.8920971
57.3090836 -0.0051772 34.9405743
57.4575253 -11.4611452 32.1124978
57.4435070 -2.3831918 33.5496888
58.1254661 -10.0388750 22.7078330
58.1360236 -9.6986797 22.3551057
57.4752726 -1.4412749 33.9151174
57.4930534 -3.9487542 32.8515880
57.4554577 -0.6493439 34.3344361
57.5095266 -6.2378095 32.3522165
57.8577518 -13.0706467 31.8085887
57.5710051 -3.1116700 33.0305286
57.6602481 -8.5218055 32.1756303
57.8925721 -12.3582268 31.9058336
57.6559715 -4.8664194 32.3827229
57.9688884 -11.6349459 31.9868959
57.8384437 -10.9556727 32.0817567
57.6872192 -7.6862262 32.1775340
58.3942868 -10.9832315 22.5557182
58.3405904 -10.5495714 22.9811519
58.5493147 -10.7137449 22.9433812
57.9438619 0.3462640 34.0100229
57.2602600 0.4375593 35.2511108
57.4780367 0.6911390 34.9857062
57.6623604 -5.6139091 32.2503522
58.3391786 -10.2695487 22.9854770
57.7972643 -0.7800155 33.6968377
57.9297505 -1.5589936 33.1278928
58.1163540 -9.8081492 32.1164951
58.1463948 -10.4332659 32.0882797
57.8786395 -2.5168054 32.7879600
58.1744052 -9.0800133 32.0812985
58.4022515 -9.6876603 22.7718614
58.5308671 -9.8773977 23.0125543
57.8609072 -6.8781497 32.0996903
58.7018505 -10.3976866 23.1663194
58.5726090 -9.3686394 22.5642473
58.5727356 -9.6612917 22.9530372
58.5989729 -9.5149735 22.8926055
57.9113513 -3.3215967 32.4435048
57.9705462 -4.1075498 32.1439318
58.0375940 -6.0884850 31.9583565
58.3337545 -7.5375410 31.9670029
58.2408831 -8.3194450 32.0293047
58.0283515 -5.3461841 31.9305696
58.1553243 -4.7379346 31.8349786
58.6789586 -10.0962063 23.1900327
58.4869795 -5.6799222 31.6662230
58.4653094 -6.1808866 31.7517556
58.2306087 -0.5682923 33.1125483
58.3795086 -5.1500355 31.6328146
58.2360402 -1.9891469 32.4664935
58.2914315 -2.6747934 32.1287476
58.4362596 -12.5825340 31.8509080
58.9286499 -10.6077744 23.1349636
58.9016005 -10.8791478 22.9023900
58.7467514 -11.8404692 31.9410823
59.0147078 -10.0990832 23.3865604
59.1724776 -10.3672314 23.3448036
58.7766357 -11.0344253 22.5907359
58.5261695 -1.1797679 32.3898382
58.3921112 -3.5215232 31.7470506
58.8858761 -9.8286141 23.2797544
58.3472438 -4.2346162 31.6754170
58.8093251 -9.5829824 23.0668169
58.7997027 -9.5106624 32.0854597
58.8307716 -9.3558794 22.8833221
59.1740161 -9.2998846 23.0821595
59.1255724 -9.5631732 23.2887380
58.8443913 -8.7958584 32.0350938
59.1075830 -9.0730684 22.6745103
58.5629269 0.1844334 32.9067297
58.6327389 -0.4146921 32.5470343
58.8964559 -8.0612833 31.9617800
58.6336851 -1.9684755 31.9056138
58.7422103 -4.7494061 31.3804485
58.8130206 -2.6842826 31.4164571
58.9739457 -7.3373206 31.8645760
58.6370006 -4.0513659 31.3701518
58.6494319 -5.2753794 31.4983316
58.9380190 -3.5348434 31.0881492
59.0848923 -5.5463705 31.4459056
59.1851175 -8.8889580 22.3666746
58.9800552 -4.1749161 31.0713928
59.3809523 -4.5379275 30.9694000
59.3964122 -5.0578681 31.1934091
58.8190332 -0.0610000 32.3955230
58.8701069 0.2860597 32.4565098
58.6303994 1.0783357 33.2022272
58.8628128 0.6661290 32.6366499
59.0148531 -12.5083551 31.8956003
59.0008907 -1.3050612 31.6397808
59.0282828 -0.4463387 31.9316499
59.3540743 -10.6363222 23.2402459
59.1265336 -11.0372752 22.6279628
59.3491197 -10.8733205 22.9624994
59.4976880 -10.0678448 23.5570837
59.5713183 -10.3637064 23.5104542
59.0213165 -1.9376884 31.3701294
59.4373085 -11.1390045 32.0333056
59.3727157 -11.9903227 31.9603905
59.2792891 -11.6217881 31.9764093
59.3221970 -9.7596180 23.4598331
59.3345016 -2.2204171 30.8366679
59.5495626 -9.7944727 32.1355723
59.0257905 0.1120338 32.1482718
59.5299490 -9.3744555 23.3949795
59.5238172 -9.0533514 32.1023501
59.7253554 -8.9125251 23.0546910
59.5394187 -8.3489297 32.0247263
59.5502630 -7.6483721 31.9188759
59.4437197 -3.9444566 30.6939352
59.3677089 -3.3736064 30.6104235
59.5550835 -6.9960901 31.7883715
59.3207106 0.2406425 31.7592435
59.1103323 0.5583163 32.2068706
59.5564581 -6.2875375 31.5971375
59.6572645 -10.9421583 22.7568746
59.4143867 -0.7999824 31.2242191
59.4911687 -0.1587166 31.3500166
59.3859181 -1.4947787 31.0159177
59.9223115 -5.5793338 31.2997736
59.9653684 -4.9206014 30.9656803
59.9669702 -4.3762140 30.6440983
59.7682893 -10.7411295 23.1618118
59.7736910 -3.5247856 30.2747078
59.9569194 -3.9600004 30.3724688
59.8715879 -10.4832156 23.4685410
60.0441955 -10.1367850 23.7278547
59.7027987 -2.3117284 30.3039104
59.8197840 -1.6730570 30.3484499
59.9444956 -9.6168946 23.7151440
60.0841008 -10.8188652 22.9973644
59.5866702 -11.5845324 31.9985040
60.0330755 -10.3376657 32.1449526
60.1033270 -10.9409457 32.0887491
59.7494692 -1.0411930 30.6594670
59.8557331 -0.3685820 30.7458285
60.2186806 -9.1433916 32.1866348
60.2984354 -9.6472278 32.2122574
60.0029901 -9.1456315 23.5256832
59.8574206 0.5712442 31.0938079
60.1835996 -3.7068301 30.0841238
60.2214597 -8.4980158 32.1094617
60.0197874 -2.5220350 29.8795439
60.3532530 -8.4956130 22.9163468
60.3652894 -8.7737879 23.3908761
60.2240451 -7.7956691 31.9816023
60.3480972 -10.5495574 23.4089512
60.1332746 -7.1536014 31.8398215
60.0124821 -6.6637308 31.7082405
60.2748878 -6.2084310 31.5343551
60.0107200 -2.0686470 29.9575999
60.1892211 -10.3674661 23.6305855
60.2827817 -0.8892207 29.9614910
60.2916740 -1.7326482 29.7047682
60.3520535 0.0867165 30.1898159
60.5784766 -5.2924776 31.0414452
60.6270283 -4.7173491 30.6519326
60.5984256 -5.7956777 31.3163102
60.7610047 -12.5148688 32.0739448
60.2597371 -2.2060331 29.6158865
60.5174601 -4.1254535 30.2299708
60.5265461 -10.2148149 23.8191430
60.3579283 -2.5850106 29.4993073
60.6190078 -11.8621066 32.0619680
60.8101077 -9.6835876 24.0774490
60.4834072 -10.7578412 23.0194442
60.9839037 -10.5670886 23.2765134
60.9169863 -10.2988454 23.7700418
60.7234985 -10.5883479 32.1717672
60.5398603 -9.1203228 23.8316804
60.8180128 -9.8072086 32.2567858
60.8124621 -10.8010797 22.7997005
60.5396889 -3.6691402 29.8631079
60.8373433 -9.2075840 32.2648250
60.6724694 -2.2099409 29.1639119
60.8601347 -8.6474186 32.2001018
60.9439388 -7.9689939 32.0588648
60.6907755 -0.2644264 29.5788720
60.9474741 0.4956525 29.4593349
60.4906231 0.9553339 30.3059854
60.7950613 -8.7085338 23.6083623
60.7192218 -1.4007643 29.2145461
60.7994050 -0.7673650 29.2639844
60.4842640 -6.6790790 31.7033641
60.9178431 -7.1405638 31.8230428
61.0009879 -6.2997867 31.4978920
60.8934984 -3.8715287 29.8351664
60.9803908 -4.4361358 30.3126015
61.0608794 -4.1619134 30.0267860
60.7481152 -11.4390515 32.0795439
60.8568154 -11.1148776 32.1187489
61.1792058 -5.1390529 30.8096558
61.1679219 -5.6567704 31.1414264
60.9342828 -9.1860695 24.1117887
61.0396490 -8.8636866 23.9520930
60.9213673 -10.0647025 24.0248814
61.2516403 -4.7472091 30.4869972
61.1428916 -12.7382968 32.1496688
61.0765889 -0.2566567 29.0233884
61.4955686 -4.4348799 30.1017947
61.1042269 -12.0796934 32.1286507
61.1248426 -12.4424631 32.1339406
61.2405352 -1.0582252 28.5594277
61.2604693 -8.4701320 23.5990174
61.4231154 -10.0487508 24.0774769
61.2866096 -10.3224795 23.6859899
61.0987656 -11.4697302 32.1351327
61.6382882 -9.6432986 24.4211219
61.5474097 -10.4568070 23.3527534
61.2837113 -10.8280713 32.2185084
61.5105070 -10.0454511 32.3281400
61.4442676 -9.3207806 32.3241875
61.4030026 -8.6814202 24.0233056
61.3384433 -8.8423109 32.2712287
61.3556094 -2.7710588 28.5719354
61.4499412 -3.9227912 29.5901205
61.5694039 -8.3144289 32.1627930
61.3483824 -3.5515821 29.2579122
61.2982400 -1.6655008 28.3420812
61.8220083 -7.5166607 31.9026858
61.5355484 -0.1277946 28.3848904
61.2515397 0.1734115 28.8986042
61.7170073 -6.6959150 31.5752029
61.6086461 -1.6867003 27.9361922
61.7158115 -2.7365494 28.1269532
61.6520867 -2.2774015 27.9344022
61.7506765 -8.1185754 23.4556701
61.6310090 -8.4160427 23.8654427
61.7325343 -6.0325093 31.2358364
61.5570955 -10.2696428 23.7214398
61.5885891 -5.0299847 30.6085907
61.6861954 -4.7937613 30.3658545
61.8113950 -5.4428661 30.8346283
61.8803203 -0.8274466 27.6916716
61.5439117 -12.4238012 32.2466269
62.0885193 -12.8632747 32.3795341
61.9393103 -13.2256588 32.3396437
61.9541779 -4.3075727 29.7346041
62.1339753 -4.7500217 30.0988127
61.9879402 -0.0402648 27.7212001
61.8699826 0.5291972 28.0758049
61.4512600 0.5776858 28.7301056
61.5229122 -11.7508471 32.2325490
62.1924847 -10.0786202 24.2873598
62.1257499 -9.7096628 24.5994255
61.9791374 -10.3299618 23.6211792
61.7292710 -3.2172641 28.5728462
61.5494251 -11.2273423 32.2476625
61.9595386 -8.8358466 32.2835110
61.9309992 -10.7372217 32.3811881
61.9843639 -11.9010117 32.3740281
62.0624162 -12.3625658 32.3954485
61.7102832 -3.6000912 29.0404316
62.2043312 -4.0300307 29.1988663
62.1637851 -9.4934106 32.3995762
62.1520616 -10.0785019 32.4504934
62.0114543 -10.5534410 23.0140276
61.9039945 -2.2183903 27.5865067
61.8165731 -2.5237508 27.8098900
62.0693304 -1.6317626 27.2799544
62.1163175 -8.1136292 23.8766130
62.2212365 -7.7617723 23.3887825
62.4675974 -8.1853243 32.0903435
62.1256456 -2.7931721 27.6423581
62.1395558 -3.2392535 28.1337295
62.2688681 -5.8302064 30.9643522
61.9753376 -5.0720125 30.4850731
62.6008138 -5.3826105 30.4561425
62.4451749 -6.9469670 31.5746628
62.6452193 -7.5044865 31.8137072
62.3783991 -8.6927870 24.6944223
62.5086948 -9.6444516 24.8410720
62.6729950 -9.2140157 25.0135269
62.4242462 -8.9784907 24.8622540
62.4348521 -0.2135100 26.9725788
62.2952282 -1.0447861 26.9938670
62.1988103 -3.6240381 28.6138766
62.3388104 -2.3622671 27.0259436
62.3255000 -6.3345614 31.2695615
62.1588044 -13.2334894 32.3746204
62.3669066 -10.6197605 22.8020940
62.4460988 -10.5340565 23.1456216
62.2299202 0.4327055 27.4868030
62.5394583 -1.6741573 26.5462734
62.4627806 -4.4708024 29.5898095
62.4644049 -8.2433326 24.3756454
62.3967536 -9.9075008 24.6367939
61.8987121 -11.3910493 32.3469080
62.5660419 -2.9804180 27.1855909
62.5371560 -2.2170646 26.5985522
62.6363978 -2.5640971 26.6225878
62.5669584 -2.7413298 26.8843342
62.3247176 -12.4976169 32.4501954
62.7340823 -12.6339607 32.4867815
62.4340139 -12.1238837 32.4791186
62.5786111 -3.3609639 27.6956949
62.7621561 -8.9919241 32.3069319
62.5596344 -3.6136319 28.1557254
62.9072413 -10.1164337 24.7444455
63.0684271 -9.6371407 25.1515768
62.7446920 -4.8855939 29.8681539
62.7299473 -4.3113576 29.1483272
62.9579574 -4.6367855 29.3941963
62.6804978 -8.8366615 24.9427240
63.0239025 -8.9258095 25.1512416
63.0879179 -9.2562418 25.2368543
62.6156852 -0.8972849 26.5126228
62.7377257 -10.4543492 23.6794073
62.7206936 -10.2978060 24.2503267
62.8010482 -6.0139704 30.9149101
62.5787377 -10.4725845 32.5164832
62.5486076 -9.9071581 32.4894078
62.6214147 -7.8169135 24.0156148
62.4245815 -7.7795251 23.7126667
62.8217310 -4.0340447 28.5510346
62.9832372 -8.4248930 24.8911437
62.7912059 -10.5843870 23.1510438
62.7469346 -9.5653143 32.4405432
62.7752915 -6.8804184 22.5090869
62.8665611 -0.4301322 26.2138173
63.0146191 0.3543611 26.1888709
62.6104176 0.7365064 26.9806311
62.9785582 -7.8892335 24.4686697
63.0122051 -11.9878575 32.5546898
62.9983321 -1.1406346 25.8600675
62.7565905 -2.2562228 26.2750629
62.9166439 -1.8712650 25.9412564
63.2863864 -7.8127095 31.8501666
63.2083490 -8.4553827 32.1161300
62.7451763 -7.4214493 23.5752389
63.1876513 -7.1436833 31.5315090
62.8180653 -2.9897767 26.7578810
63.0726814 -3.5306741 27.1623712
62.9465282 -6.9545028 23.1073461
62.9546121 -6.5612015 31.2397964
63.4310171 -9.3955938 25.4052915
63.3180887 -9.0928720 25.3437441
63.1354600 -6.6249017 22.7995086
63.0985945 -10.0296922 32.5050130
62.9512146 -2.7642928 26.2906421
63.1276295 -2.4544394 25.7557947
63.1267875 -5.2102092 29.9800094
63.1672069 -4.9444437 29.6200942
63.4088144 -10.0023868 25.1903366
63.6118501 -9.7486535 25.4218224
62.7293810 -3.6123684 27.8979689
62.9088432 -3.6689888 27.7167577
62.8579184 -3.7898030 28.0282926
63.1577969 -13.1132612 32.4690640
63.0430803 -7.4946387 24.0891408
63.5842755 -12.5570111 32.5352177
63.1641969 -5.8036195 30.5850916
63.2925183 -5.5322107 30.2291159
63.2888973 -1.8595437 25.3374558
63.6214167 -11.7913708 32.5966701
63.1641895 -9.4584730 32.4068330
63.2824153 -0.2578514 25.5391840
63.9599040 -10.1204179 25.4340097
63.6146888 -10.2941692 25.0419360
63.9630780 -9.4672516 25.6580021
63.9189556 -9.8141292 25.5738068
63.4516627 -6.2709386 30.8430977
63.5892451 -11.2799341 32.6128528
63.1809011 -10.4506668 24.2251661
63.4977520 -10.4364492 24.6476792
63.6209100 -9.0518799 32.2573148
63.6221692 -9.1304556 25.4947655
63.2023513 -3.2843398 26.4582019
63.8392493 -10.3192972 32.5170867
63.8194531 -10.9330993 32.5919501
63.4868219 -8.7403851 25.3366660
63.5400712 -1.0126038 24.9535609
63.1106794 -4.4494490 28.9418232
63.5952652 -9.6944291 32.4265361
63.1862655 -10.6698480 23.1346656
63.4849519 -10.6525086 23.6799326
63.2639825 -4.0217391 27.8210379
63.4556785 -4.4701602 28.4487829
63.2774904 -3.0198782 25.9491615
63.3206964 -2.3570601 25.3441166
63.3115321 -2.8330095 25.6523229
63.4045824 -2.7129545 25.3881942
63.1947294 -6.9944295 23.6290563
63.4426773 -6.5086433 23.3118590
63.3547902 -7.9412172 24.8453114
63.6197701 -8.1956666 25.1992047
63.4819344 -4.8552370 29.1251298
63.4547770 -6.2735761 22.7378029
63.5054484 -5.2128644 29.6634864
63.4270757 -5.3748009 29.9635977
63.4915158 -6.7422916 31.1934520
63.4634420 -7.4756667 24.5480146
63.5102838 -3.7362778 26.6235396
63.7146533 -4.1352925 27.0914901
63.8944656 -8.3169844 31.9571793
63.0895048 -7.2593535 23.8415804
63.3538440 -7.1408730 24.0589287
63.7534261 -10.8033633 23.1483076
63.6545792 -7.4315900 31.5971710
63.8089627 -7.0994892 31.3309543
63.6658892 -0.2674258 24.8640254
63.6259541 0.3158699 25.1069143
63.3482561 0.3497458 25.6001838
63.6369959 -5.9003457 30.3833783
63.6423379 -3.6222106 26.0389317
63.9232472 -7.7635362 31.7005329
63.5832474 -6.7025991 23.8852128
63.5746419 -2.4315852 24.9589197
63.6940822 -1.7915965 24.6198736
63.8248846 -10.6415451 24.2347959
64.0739053 -10.5542727 24.8282421
63.5295436 -3.1612506 25.5839787
63.7117848 -3.0752337 25.1280777
63.7489036 -5.9141843 22.5880109
64.0084818 -10.3700776 25.1790397
63.9094859 -3.7036226 25.4277196
64.0881360 -11.3990698 32.5933993
63.8756976 -6.1935843 23.8048695
64.0204176 -6.7141559 30.9268050
64.0311837 -6.2917094 30.5025280
63.8637990 -2.3548759 24.3488997
63.8770759 -2.9112308 24.6090759
63.7593716 -5.5955607 29.9185477
63.9859959 -1.2197891 24.0702312
63.8955012 -0.5610062 24.3919399
63.8424531 -4.5148390 27.7838688
64.4352883 -10.4480358 25.3362656
64.1830638 -9.8864716 25.7174205
64.2917752 -10.1309894 25.6811362
64.2918721 -10.2628320 25.5649649
63.7329072 -6.9350470 24.3667699
64.2642081 -12.0656844 32.5649083
64.5054430 -10.8119668 24.3256707
64.7257715 -10.7401311 24.8851497
63.9638454 -1.8876654 24.0667854
63.9861077 -8.9096362 25.6372634
64.5197928 -9.6569126 25.9192660
64.5512864 -9.0962378 25.9354711
64.0262067 -5.3891172 29.2706918
64.2538369 -9.6475426 32.3539600
64.2558858 -10.8618168 23.6128699
64.0392229 -7.4241506 31.4742252
64.0385598 0.1596600 24.3313685
64.5554364 -10.0271134 25.8547273
64.0549883 -4.9964185 28.4504313
63.9029816 -6.4683370 24.2093708
63.9422610 -8.4498515 25.5062003
64.4792616 -12.8512541 32.4846618
63.8671219 -4.0676761 26.4436305
64.0825331 -2.3149089 23.7850472
64.2062873 -1.7615551 23.5108398
64.3506348 -10.8465077 32.5480625
63.7442097 -7.7366200 25.0158161
64.0269890 -3.5391005 24.8337574
64.0189126 -7.1907635 24.9370988
64.2297491 -7.8298226 25.4594609
64.5271391 -10.2776652 32.4763060
64.0393347 -2.8108992 24.0619071
64.4581392 -8.8885613 32.0757590
63.9954433 -5.6453208 22.8414983
64.2495006 -0.4648650 23.7403344
64.4129366 -1.0916706 23.2225265
64.2795488 -8.0093332 31.7264274
64.4639879 -8.3333626 31.8404026
64.0656874 -6.6125290 24.6142726
64.0790164 -3.2723031 24.3295114
64.0686676 -5.9912140 30.1267616
64.1622469 -4.4707451 26.6519487
64.1159117 -4.5784689 27.2337999
64.3593296 -7.6686940 31.5022096
64.1589761 -4.3004868 25.9373672
64.2457902 -5.8949534 24.4331770
64.2906427 -5.8564609 29.6886712
64.3139705 -4.4228360 25.1437239
64.3262863 -2.3427110 23.1612436
64.1997755 -2.7561001 23.5545654
64.4178763 -7.2390060 31.1509501
64.3764511 -6.5877382 30.5662435
64.4980669 -6.8747899 30.7792798
64.3140003 -4.9196729 27.6593063
64.2574131 -3.3315523 23.7593856
64.4235760 -8.4864004 25.7910136
64.2579868 -3.8366702 24.4025085
64.4022226 -6.4872354 25.1697972
64.5559803 -10.2692088 25.6840084
64.5710751 -6.3658296 30.0817266
64.9263188 -10.4468083 25.6438516
64.9040937 -10.2144312 25.8976519
65.0436059 -10.6750708 25.2966657
64.9663135 -9.9073341 26.0644350
64.9939626 -9.4547179 26.1342898
65.1011243 -10.9516978 24.4851150
65.2630404 -10.8865108 24.9323156
64.8744479 -11.4796991 32.5125195
64.9412423 -8.5996725 26.1286460
65.0755614 -9.0286275 26.2077991
64.4418076 -4.8782662 26.9817971
65.1022196 -11.0392757 23.8308199
64.4203573 -3.0029924 23.0226796
64.9445280 -10.6819840 32.4758813
64.9219826 -12.2964727 32.5052664
64.3999055 -3.9814496 23.9008348
64.5101517 -3.7855024 23.1542811
64.8494810 -9.4388034 32.1985632
64.8718700 -9.9298935 32.3614068
64.8693740 -11.0568432 23.1849309
64.5221993 -5.5430783 28.7335590
64.4909218 -5.7524424 29.2276349
64.4394308 -7.1294238 25.4141465
64.4210503 -4.5181708 24.4486537
64.4690171 0.2042093 23.5593375
64.4221306 -5.0894120 24.3196078
64.4361824 -5.1982193 24.8896778
64.4789785 -5.7897903 25.1778197
64.6208674 -5.3661382 28.0618202
64.8962483 -7.9562198 26.0176137
64.6874234 -7.3758652 25.7370919
64.4690841 -4.8279134 26.3046622
64.5289496 -4.5138951 23.0671335
64.7716895 -6.6883923 25.8085858
64.9252683 -8.5071586 31.7773558
65.1637539 -9.0497369 31.9448188
64.4619986 -4.8194951 25.7356390
64.6938235 -5.2582924 27.3758247
64.7224709 -5.3118970 26.6186874
64.5299181 -5.2462555 25.4586861
64.4758493 -4.5144758 23.7819310
64.7366941 -8.0168862 31.5686017
64.7250265 -7.6343133 31.3094072
64.7047684 -5.8481046 25.8796345
64.7562817 -6.1087403 29.4371825
64.8909435 -10.2803046 32.4475840
64.6103397 -5.2056629 25.9797294
65.0736690 -12.7790896 32.4526504
64.8076609 -5.9073437 28.9630126
64.9176612 -7.1408995 30.7104774
64.9067760 -7.4634030 31.0579166
64.7051930 -6.7535751 30.4758046
64.9051964 0.6638026 22.9359567
65.0442690 -5.9110476 28.3554643
65.2700290 -10.3693753 25.8974843
65.4196292 -10.5949836 25.6122127
64.9962872 -6.2176762 26.3092425
64.9689510 -5.8087874 26.6417917
65.5553937 -10.8230598 25.2540745
65.0935546 -6.8654683 30.1731806
65.3778538 -9.7296406 26.2201559
65.1478916 -6.5603266 29.5937099
64.9693012 -5.6578428 27.6835132
65.5240566 -9.2436811 26.3921767
65.1847124 -8.2308557 31.4931870
65.1662052 -7.8463554 31.1990678
65.5543059 -11.0446028 24.6307217
65.6526536 -10.9793944 24.9518882
65.0598407 -7.2568874 26.1086039
65.0864094 -6.6963411 26.2497440
65.3934702 -8.7059056 26.4095701
65.5067042 -11.0959709 24.2284499
65.4428303 -12.0475050 32.4234329
65.3390810 -11.0230474 32.4306376
65.6141043 -11.4679756 32.3798321
64.9371520 -5.5752378 27.1271802
65.2080029 -10.2587966 32.3775150
65.1538968 -6.2666577 29.0072039
65.3051436 -8.2759922 26.3677295
65.6230897 -11.2053026 23.0881032
65.9077987 -11.2084830 23.7828158
65.4950589 -8.6315461 31.5919593
65.6053498 -7.7789277 26.6517475
65.3664321 -12.5271985 32.4298777
65.4757544 -9.7445557 32.1229845
65.3992966 -10.6277093 32.3993750
65.4481947 -7.0783957 26.6351383
65.2873740 -6.4831185 26.7414954
65.1214048 -6.0990583 26.7017819
65.1945770 -6.0243052 27.2419862
65.1788339 -5.9454790 27.8144442
65.7393336 -9.1669438 31.7715630
65.2492344 -7.5317933 30.8416020
65.4600039 -7.3566427 30.3947851
65.5004233 -6.4574452 28.5254139
65.4123127 -6.2651709 27.9082879
65.4707253 -12.9236421 32.3600322
65.5663088 -8.2132882 31.2529132
65.7387674 -7.9159243 30.7815000
65.5572116 -6.5566315 27.4084359
65.6554848 -6.8888296 27.1021631
65.5605420 -6.7209508 29.0944912
65.6545535 -7.1082888 29.6967570
65.6289756 -10.3391195 32.2743878
65.4570013 -10.2703180 26.0474682
65.7710657 -10.4059363 25.9311609
66.0118833 -10.7455291 25.5255196
65.9832954 -10.9625459 25.1131225
65.8896640 -12.5619965 32.2839022
65.9491420 -11.0853519 24.7491635
65.8993870 -9.6981702 26.3880081
65.9345165 -7.3300297 27.2343513
65.8397898 -10.8639505 32.2872438
65.8579990 -8.7532699 26.6854316
66.1344975 -9.2713377 26.6789142
65.9091994 -11.1574503 24.3494995
65.9558922 -11.9337207 32.2951786
65.9291297 -8.8489633 31.4906500
65.8885166 -8.5098334 31.2707648
65.8522770 -6.8247202 28.0474108
65.8254921 -6.8533667 28.6440160
65.6572133 -8.3332341 26.6235732
66.3557127 -10.1424148 26.2621921
66.3502067 -11.2403464 24.1215620
66.3804561 -11.3051189 23.1454466
66.5266290 -11.3003282 23.6463267
66.0668239 -8.2410732 26.9530043
66.2337765 -11.1720739 24.5123561
66.1768243 -10.2424836 32.0315361
65.8720955 -6.9774091 27.5312364
66.1116093 -9.6097235 31.8361446
66.1409795 -7.2787129 27.7476273
65.9751445 -7.1459054 29.0286150
66.2025437 -11.4573585 32.2199836
66.4171949 -9.6881492 26.6098138
66.2133023 -9.1804778 31.5417834
65.8544526 -8.2384013 31.0764685
66.0003051 -7.6734219 30.0784651
66.3951486 -8.7840166 27.0232130
66.1500469 -8.4003573 30.9109390
66.2643164 -8.8151218 31.1986730
66.2050322 -7.5451918 29.4227935
66.3405582 -10.5438987 25.8647967
66.1320090 -7.1832803 28.4573920
66.3384646 -8.2022417 30.3686522
66.1727339 -7.2072688 28.0887578
66.4532706 -10.9222997 32.0731290
66.8133646 -9.3559213 27.0333700
66.6022152 -12.1253375 32.0832469
66.4514899 -12.8931887 32.0873037
66.5877983 -11.2084383 24.4321860
66.7782128 -13.4829506 31.9084786
66.7021424 -10.8269202 25.5192779
66.9103786 -9.9114850 26.6944971
66.9001713 -10.5345547 26.0037426
67.0106784 -10.2562932 26.4045261
66.3689077 -7.5293998 28.8012754
66.7185262 -8.6498382 27.3448061
66.7372942 -8.9337174 27.2177216
66.4989129 -8.0025373 29.7350828
66.5285140 -9.5460536 31.5781273
66.6197166 -9.1998810 31.2287975
66.9771880 -11.2982662 23.9654891
67.0325682 -11.3563398 23.2279506
66.4526373 -9.8765474 31.7942426
66.6194931 -10.1449946 31.8050832
66.7412579 -10.5198808 31.8446010
66.6192025 -7.8940196 29.1389041
66.7685196 -9.9003157 31.6048302
57.2234280 0.7565598 35.4806259
57.3866107 1.3320632 35.4632773
57.1744740 2.0850846 36.2141654
56.7875803 1.5726539 36.7202125
57.7626824 1.2835981 34.7663052
57.7336922 2.1642954 35.2243967
57.5886928 3.1371252 35.9087102
58.2209863 3.2628118 34.8422676
57.9158403 4.0402091 35.6776901
57.4726835 4.0951241 36.5031362
57.0297278 3.1753257 36.9817428
58.2850836 1.8876565 34.1448449
57.9626486 13.7239937 35.7855111
57.4839748 13.8696348 36.2729095
57.9742193 13.2224187 35.9804742
57.8134581 14.1259683 35.7592180
57.5897023 13.0187823 36.5421250
56.9784865 14.7572821 36.3609791
57.5373918 14.4573729 35.8871706
56.8587594 14.1817546 36.8989110
57.0992306 13.5146473 36.9711854
57.7992052 4.7229398 36.1324362
58.1488051 4.8095393 35.5525091
57.9824932 5.5688759 36.0931791
57.4974678 5.0939135 36.8106440
58.2768321 4.2124819 35.1158679
58.3647043 5.4374156 35.4047231
58.4364086 6.2390761 35.5366878
58.0409542 6.5003783 36.2613089
57.6158054 6.1632576 36.9147137
58.7194599 2.9203629 33.8674039
58.5416742 4.0797787 34.6240997
58.7236397 3.6621448 34.1624618
58.3427623 13.4156924 35.4717039
58.1646897 14.0202520 35.4068168
58.0023639 12.7018560 36.1384302
58.4469475 12.6557136 35.6136449
58.1778772 12.1796960 36.0843427
57.8293093 12.4406228 36.4493951
58.5808009 4.8686950 34.8558836
58.9986518 2.1613368 33.0954194
58.2929663 11.6073405 36.0839851
58.6411618 11.8215000 35.6027335
57.8718930 11.8520819 36.5815163
58.5777536 13.8028190 35.0288115
58.3737753 14.5089086 34.8816924
57.8790382 14.5420376 35.4428254
58.2134128 7.7936188 36.2605043
58.3468154 7.0492551 35.8937122
58.6724095 7.6372800 35.5144143
58.0529533 7.1252622 36.3907702
58.6678460 8.6261928 35.6795006
58.0279827 8.6693745 36.6662815
57.8490198 7.3945769 36.7899537
57.8649193 7.9650478 36.8574858
58.1336915 11.0653210 36.4034511
58.6399361 11.1119458 35.7331894
58.5402735 10.3882616 35.9312631
58.0444708 10.2883847 36.6350301
57.7252582 11.3488818 36.9315743
57.7820353 10.8316559 36.9571187
58.6947463 5.6937318 34.9539183
58.6790927 6.9385427 35.3406034
58.9657575 6.4685149 34.7685479
58.9298755 4.3940446 34.1180936
58.9197576 13.1239146 34.8988473
59.1268502 12.1755367 34.9399559
58.3561361 9.5457034 36.2040848
58.9921363 9.7175278 35.3256911
57.8271709 9.5555596 37.0128974
59.1389984 5.4512308 34.1801494
58.9601621 3.4510044 33.6954631
59.1565967 3.1043785 33.2439840
59.1753460 1.2500721 32.4149169
59.0514429 13.9752747 34.3770050
58.9983203 3.8700616 33.8008888
59.1944344 11.2176100 35.0332856
58.9792617 7.2873277 34.9701010
59.1397285 8.0649592 34.8984115
58.9868128 10.5629610 35.3431068
59.2438951 8.9213513 34.8973274
59.1987520 4.1505136 33.6002633
59.3492985 4.6793954 33.5762762
59.4419204 7.2952621 34.2824869
59.4011918 6.3670366 34.0840444
59.2204742 3.7028436 33.3877839
59.5535859 2.8636830 32.5258970
59.4993345 2.0356164 32.2539248
59.5077798 3.5338544 32.8767709
59.4328642 0.8126332 31.8301208
59.4955347 13.2227326 34.1878869
59.4116412 12.6725528 34.4772562
59.7564317 13.7836142 33.6359628
59.3453459 14.6683287 33.6210653
58.7715134 14.8039833 34.2283510
59.7080328 1.4447798 31.6753201
59.6828535 12.1608404 34.2957899
59.5601089 5.2414546 33.4739797
59.6497506 5.8999504 33.5756578
59.4649613 10.3575708 34.7380377
59.8212667 8.5988352 34.0350717
59.5208891 4.1136006 33.0917053
59.5491901 9.5556686 34.5624387
59.7747080 4.7358940 32.9578184
60.1030625 3.8908834 32.1209282
60.0739457 2.4630944 31.5520205
59.8179810 6.7213946 33.5888863
59.9716343 7.5475019 33.5993059
59.8761663 12.6548810 33.9262150
59.9269420 13.1753664 33.6938165
60.2462664 1.5430513 30.8983512
59.9231049 5.4637594 33.0209620
60.1213202 10.1210754 33.8527039
59.9626489 11.7517579 34.0446904
60.0938648 12.0590823 33.8159278
60.0906499 6.1811809 33.0316387
60.3628457 7.0433598 32.9246372
60.2255203 5.0479765 32.4160159
60.2408610 13.3587755 33.2412906
60.2399744 13.8931414 33.0037065
59.8835573 14.3182650 33.2047231
60.4223795 8.0712596 33.1124142
60.6426150 9.1533707 33.0342725
60.2247305 9.7058024 33.6593427
60.2695830 12.8254062 33.3898589
60.2809452 12.3357689 33.5086100
60.7758723 2.2663074 30.3976312
60.6684163 3.2097194 30.9729259
60.2748245 5.7116868 32.6003693
60.1957254 11.6853779 33.7622464
60.6076196 1.5594985 30.3598177
60.6869236 4.8972461 31.6798650
60.9594658 4.1760909 30.9669469
60.5271868 6.2622637 32.4456804
60.5893582 13.4768765 32.7592008
60.7632659 13.9927091 32.2821885
60.2121353 14.4515289 32.7168331
60.5154112 11.6728265 33.3261304
60.5670661 10.8587602 33.3081260
60.7115068 12.8956903 32.8109711
60.6421418 12.3214126 33.0461822
60.8465858 10.1893973 32.9046920
60.6101751 5.6078881 32.0799574
60.9358475 1.4726513 29.8363399
60.8546585 7.6576299 32.4337445
60.8772822 6.8817944 32.1736448
60.8971752 8.4065525 32.5592868
60.9628111 6.1776577 31.8055041
60.9549806 2.9636272 30.4302741
61.1766465 3.5110125 30.3429086
61.0566065 13.1573630 32.2790481
61.0988736 11.0375630 32.6003321
60.9790199 11.7818760 32.7066444
60.9878153 5.5575501 31.5191559
61.2290800 8.9687994 32.2284251
61.1503758 9.6356580 32.4393213
61.0703640 1.9800691 29.8275426
61.2107962 2.8712249 30.0000738
61.2625144 2.3444730 29.6873227
61.1074977 12.2842528 32.4578136
61.2390414 5.1081991 30.9641119
61.1404851 12.6869055 32.3281735
61.4554584 13.4529034 31.6449068
61.2868592 14.2154321 31.4907804
60.8254001 14.6659669 31.7965522
60.4730956 14.6549391 32.2525129
61.3396652 1.2111467 29.1166194
61.3197684 1.8386920 29.3885712
61.3579936 8.1538763 31.8817385
61.2286814 7.3967315 31.8547115
61.4198968 10.2533689 32.1481898
61.3399744 6.7849364 31.5004289
61.4426322 6.0019004 31.0546774
61.3069944 4.0503121 30.3945355
61.5373068 4.5675789 30.2844942
61.4749379 11.6430214 32.0737846
61.6104007 9.5556173 31.8088084
61.6458543 12.4960244 31.6991620
61.5905486 3.3624775 29.6476912
61.5223572 2.7855285 29.4857752
61.7647469 10.9028248 31.7213051
61.7292710 8.8524492 31.5298587
61.5596622 3.9483835 29.9681127
