# 3D Systems, Inc.
# New Model
46.1617298 65.7232925 18.5509603
46.3105552 66.3199201 9.6293353
47.0951609 65.8171475 14.2297847
46.8131788 65.9439415 13.5043301
46.9230227 66.1771595 9.0594515
46.9849706 65.1312396 21.0026521
47.0628180 65.2448386 20.2742908
47.4876501 65.6393468 15.2351633
46.1698771 65.0275722 22.2918168
46.6301180 64.9949461 22.0264401
46.5976819 64.9048761 22.4443581
45.7758754 64.9907291 22.7497648
46.2774038 64.8999810 22.7280054
46.5643704 65.6384006 18.4146501
47.0384173 64.9958253 21.6191690
46.7338413 65.6437948 17.8910084
47.2209379 65.3317645 19.4464661
47.0331907 66.0976768 9.9204704
47.3261178 65.5392930 17.2175374
46.8958020 66.0005510 12.3908101
46.9385572 66.0331920 11.6409268
47.2763851 65.4420629 18.4234474
46.9897427 65.9349561 12.9540963
47.0702201 66.0400540 10.8045870
47.0684096 64.8593754 22.2002175
47.7102026 65.5141622 16.1742214
47.8685126 65.8850148 9.3287183
47.5700907 65.7532662 13.2403448
47.7833450 65.0141910 20.6415076
47.5928187 64.9604276 21.2040581
47.6915129 65.8880919 10.3021003
47.8893928 65.1009902 19.8967811
47.4943183 65.8572912 12.0230997
47.3732091 65.8554062 12.6188155
47.5818738 65.8710673 11.3004362
47.6377048 64.8327395 21.7461977
47.6351865 64.6798685 22.4089194
46.7971861 64.7204965 22.9852069
48.2013971 65.5170381 14.1059412
48.8055907 65.2585551 15.4343806
48.3446382 65.2178228 17.6943988
48.2220203 65.3384253 16.6678280
48.3388565 65.0871322 18.9962573
47.6133078 65.8880100 10.8034601
47.8724539 65.7204166 12.4786645
48.0182879 64.8321137 21.3214774
48.3689047 64.6273494 21.7944589
48.2436903 65.6517372 11.7318872
47.9731597 64.9083629 21.0071839
48.4351665 64.7858679 20.9412314
48.4743752 64.8970827 20.2129502
48.6299247 65.4784590 12.7799539
48.0777957 65.7468587 10.8620562
48.4724827 65.6669736 10.1233078
48.4509915 64.9773553 19.7027866
48.9958376 65.1179999 16.7017691
49.0997769 64.9565756 18.1532558
49.2645353 64.9763122 17.4450483
49.0989648 64.7934675 19.6102113
49.3687689 64.8125634 18.7439676
48.8544516 65.5139163 10.9274192
49.2006429 64.4940436 21.2371591
49.3275225 64.2079338 22.3628003
48.2739359 64.4788817 22.5819498
49.1855107 65.3738901 11.7612565
49.1585657 64.6571964 20.4267278
49.5948866 65.1429370 13.6912344
49.1751656 65.2068853 14.5795066
49.6918596 65.1886836 12.4519104
49.3584760 65.4014945 10.1388153
49.7074127 64.9610832 16.0139576
50.5473204 64.7859499 14.8189347
49.7178733 65.0492013 14.5446509
49.7273915 64.8912415 16.8358926
50.2332225 64.6442771 17.6883619
49.7696958 65.2405992 10.9771043
49.7998558 64.5282865 19.9233368
50.0807837 64.5411611 19.0837961
49.9021001 64.3885061 20.5876958
49.9810614 64.2245635 21.3242359
49.8841107 65.1708618 11.7244180
50.0887074 65.1780069 10.2255475
50.4891835 64.7007972 16.2532646
50.3112711 65.0283396 12.0401671
50.4675247 64.9441108 12.7266804
50.4270867 65.0247335 11.4120096
50.5537018 65.0176406 10.7072331
50.7218689 64.8205727 13.5255456
50.5262315 64.1386956 20.7719598
50.4490323 64.0822351 21.2446917
50.4991002 63.9410689 21.7690263
50.7399328 64.2094538 19.8256057
51.2299351 64.1998127 18.5534172
50.7594571 64.9819821 9.9505093
51.2057841 64.4325390 16.6063365
51.6148806 64.2060488 17.3329078
51.0235466 64.8179501 11.9016245
51.4838062 64.4305944 15.5717880
50.9772599 64.8684278 11.1637330
50.8264340 63.9553219 21.1393479
51.3924733 63.6565238 21.4109514
51.0861389 63.6158809 22.1714694
50.4403040 63.7236461 22.7617212
51.3063744 63.8708770 20.5300953
51.2637682 64.8010001 10.5827954
51.3386279 64.6733567 12.7668474
51.5510365 64.5514503 13.6575494
51.9276485 64.3675476 14.4819198
51.5627451 63.9824122 19.2645695
51.5397824 63.9055669 19.8180769
51.5759103 64.7225007 9.8781828
51.5931435 64.6687075 11.2493988
51.9681610 64.5096824 11.9825490
52.1731414 63.8148114 18.6698716
52.1496199 63.9318079 17.9042723
51.3369143 63.3309931 22.8428375
52.0790219 64.5293742 10.5969170
51.9591197 64.6032244 9.3242237
51.9834720 63.6695176 20.0539138
52.1133766 64.1424954 16.2450038
52.1900654 64.3890575 12.8452387
52.2083081 64.4617677 11.2967147
52.1498732 63.7082234 19.4200389
52.5141545 64.0987754 15.1824802
52.4715856 64.2459393 13.5898050
52.2572808 64.4868314 9.8793656
52.6131950 63.8558492 17.0188751
52.8978892 64.0414730 14.2319463
52.6069477 64.3056780 11.6318073
52.7502969 64.2250404 12.2231748
52.7555123 64.2717555 11.0398559
52.8208576 64.2647147 10.2699297
52.7618788 64.2982125 9.3158260
52.9939495 63.5690317 17.9258641
53.0848429 63.7922734 15.9366615
52.9807135 64.1026869 12.9153905
53.4465872 63.7625530 14.8717808
53.1934761 63.9846325 13.5195823
53.3048250 64.0370026 11.6408579
53.3878580 63.9753118 12.3746982
53.4402281 64.0051961 10.8041111
53.5411835 63.9674440 9.9379979
53.8183972 63.7584403 13.0186053
53.7171885 63.7381971 13.9467632
54.0170707 63.7189075 12.1251699
54.0700294 63.7188032 11.3006607
54.0507808 63.7375489 10.5640786
54.3593056 63.5791272 9.8374570
54.6954498 63.3746237 12.6571655
54.7777228 63.3727983 10.8123021
54.7238775 63.3962154 11.7689129
55.1713593 63.1478205 9.8980172
55.5133112 62.9149303 13.1722679
55.3899147 63.0261302 12.1963313
55.3058013 63.0900189 11.4393253
55.5221140 62.9321113 9.2086121
55.6954406 62.8518090 10.6849819
55.7983220 62.7805889 9.7815264
55.4978475 -107.4071974 16.0703044
55.5372424 -107.2234362 16.8207232
55.4309897 -106.7828089 20.8419077
55.6781441 -106.6133827 18.2295982
55.5704683 -107.0448756 17.4988471
55.5546023 -106.5503582 20.2794820
55.6675345 -107.1062610 13.8650918
55.6663461 -107.0663333 14.6828108
55.8183528 -105.9401259 19.4570944
55.5831194 -106.2933952 20.9307261
55.6011684 -105.9760228 21.5530675
55.6302667 -107.2350070 13.0230393
55.7062998 -106.8979502 15.4290246
55.6231774 -107.2556749 9.7661447
55.7001643 -107.0545465 10.3175268
55.6531176 -107.1822345 12.3030804
55.6804240 -107.1002856 9.1146678
55.7895899 -106.5911949 16.2508134
55.7669401 -106.8788543 11.0147940
55.8479056 -106.6616625 11.7546041
55.7270944 -106.6694260 17.0871168
55.7600223 -105.8721542 20.4752348
55.7103865 -105.8678180 21.0021716
55.6982905 -106.6812500 17.5763965
55.8738150 -105.3045020 21.0242383
55.7729527 -105.2185521 21.9488423
55.5001833 -105.8375537 22.4624593
55.9160523 -106.4073965 14.1834021
55.8777712 -106.4721346 14.8653230
55.8989979 -106.5267548 9.6103437
55.9905283 -106.2444076 13.2155810
55.8708645 -106.5943018 12.4549698
56.0124591 -105.5903584 18.4993874
55.8157377 -106.3638180 17.4834300
56.0248271 -105.7482213 17.6306237
55.9732988 -106.1659157 15.4120196
55.9755266 -106.3288972 10.3670927
55.9927784 -105.2258015 20.1232880
56.3097633 -104.5200229 19.1232022
55.9496731 -106.0734168 16.8917440
56.1337397 -105.6608111 16.0528515
56.0509972 -104.4832319 21.5342734
55.8984242 -104.5420691 22.4279370
55.6657128 -105.1586792 22.7182005
56.1869405 -104.4459715 20.5413476
56.1246760 -105.8038175 14.6271819
56.1657250 -105.7332233 13.8532482
56.0688600 -106.0751304 11.0805826
56.1458729 -105.8727726 9.8216813
56.2049113 -105.5348441 15.2605614
56.2065467 -105.3703725 16.8510694
56.2223010 -105.6422442 11.9851921
56.2602282 -105.5697128 10.3618354
56.2288016 -105.0639451 18.0551596
56.2828705 -105.0583795 17.4103640
56.4033650 -104.9608067 15.4828317
56.4067662 -104.8858017 16.2367467
56.4496964 -104.9714610 13.1580951
56.3871861 -105.0618365 14.7390021
56.3433878 -105.2253693 14.0912421
56.4412698 -104.6971455 16.9087052
56.3310832 -105.3711995 11.0049201
56.5132163 -104.3209359 17.6244788
56.3710332 -105.2706242 9.7095147
56.5801747 -104.6979800 9.0656905
56.4896874 -104.9515083 10.4598505
56.4283542 -105.1211655 10.0955106
56.6062778 -104.6180800 11.1425882
56.6019826 -104.5971215 12.0796403
56.6265844 -104.3057889 15.7298427
56.6249713 -104.2341664 16.4311826
56.6572323 -104.2831466 14.8971956
56.6102564 -104.1967273 16.9348828
56.5853752 -104.5420989 14.0900286
56.5858297 -104.6947688 9.8549547
56.7170121 -104.3357104 10.3054140
56.8497442 -103.8296446 13.4411929
56.8295419 -103.9432883 12.5237973
56.1255440 -103.9344445 22.1295692
56.2194437 -103.8973555 21.5859581
56.2428311 -104.0218920 21.1401600
56.2907010 -103.5203040 21.8518022
56.2578775 -103.3418626 22.3972723
56.0154207 -103.8149521 23.0156370
56.3714430 -103.7515178 20.7654089
56.4415976 -103.7666500 20.1325323
56.3691892 -103.5163477 21.3150997
56.8553545 -103.1236947 18.1744080
56.5878749 -103.9206535 18.2394218
56.7216650 -103.0842289 19.5422471
56.6048585 -103.7260741 18.7251866
56.4689822 -102.9026583 21.8591578
56.6029362 -102.9836684 20.7401905
56.8559915 -103.4610793 16.8021452
56.8486564 -101.8205434 21.4687418
56.5203726 -102.2433341 22.7659475
56.3774630 -102.8731316 22.5121770
56.9190979 -103.7935689 9.4991969
56.9811612 -102.0017564 20.1550182
56.7996651 -103.7617922 16.0194580
56.8595752 -103.6565006 15.3459115
56.8957031 -103.8061455 11.5956180
56.9759347 -103.6207527 10.5752544
56.8193160 -103.8662568 14.2284436
56.9117330 -103.5614982 14.6895545
57.1210347 -102.0354480 18.9835578
57.2023094 -102.3308709 17.1754621
57.2392419 -102.0143777 18.0187374
57.0219569 -103.1117737 15.8165675
57.1298487 -102.8873026 14.9527034
57.0857674 -103.1013429 14.0420273
57.1963154 -102.5082245 16.2955411
57.0456386 -103.3197343 12.7932113
57.1277887 -103.1284630 12.0846191
57.0760369 -101.4541462 20.6912849
57.0960194 -100.7869542 21.9109915
57.1914352 -100.9064838 21.0411921
56.8395853 -101.2539938 22.6223581
57.1255833 -103.0524597 13.2676177
57.1829826 -103.0778363 9.8988051
57.2583154 -102.8894484 9.2733866
57.2186559 -102.9200926 11.1808106
57.2805963 -102.7899683 10.4101393
57.2073050 -101.5184149 19.5821114
57.2748072 -101.0592952 20.1270506
57.4432425 -100.9425223 19.0888681
57.3725887 -101.4695764 18.3827914
57.3517717 -100.1635566 21.4908980
57.2597459 -100.1270488 22.1581142
57.0775904 -100.4279628 22.7075908
57.2771728 -102.3737043 15.5112222
57.2857447 -102.6329026 12.6648247
57.4008003 -102.1311432 14.3255694
57.3528893 -102.3687124 13.4123117
57.3362261 -102.2605821 14.9720032
57.4788973 -102.1346450 11.7637087
57.5453304 -102.0335034 10.6601696
57.4725531 -102.2925898 9.7380970
57.4943982 -100.1293957 20.5821134
57.5084276 -102.2223085 8.8379849
57.4268699 -101.5642583 17.4968615
57.4194007 -101.4767662 17.9466028
57.3680811 -101.9373909 16.5509880
57.4370995 -101.6533747 16.9318449
57.4599840 -99.5648652 21.9906271
57.3095642 -99.6785238 22.7044299
57.6041974 -99.4460657 21.2821122
57.5721152 -101.7781869 12.6842009
57.4355200 -101.8208265 15.9405507
57.6356202 -101.5039086 13.5106891
57.5267486 -101.6483903 15.1174394
57.5170703 -100.4108712 19.7919905
57.7227026 -101.1410952 14.3016772
57.6116182 -100.8086726 17.9174244
57.6588064 -100.1388803 19.3224028
57.7641726 -100.0397801 18.6476279
57.6112680 -101.0556221 17.0288347
57.6646589 -98.9902914 21.8338538
57.5676486 -98.9716500 22.4871282
57.7567443 -101.4812961 9.9013615
57.7446558 -101.4139801 11.1562125
57.8467064 -101.1754721 10.4736546
57.5524345 -101.3699248 16.4289102
57.8098968 -99.1416723 20.4983596
57.7065162 -99.7523442 19.8657084
57.7496290 -101.5365347 9.1838008
57.6733388 -101.0896489 15.7635193
57.8431115 -98.6746624 21.3081017
57.8482747 -101.0195389 11.9221509
57.8223206 -100.7256880 15.0379306
57.8245483 -100.9986401 12.8397485
57.8436255 -100.2649069 17.0455743
57.9800270 -99.6121466 17.7433938
57.8481555 -98.2867554 22.1094787
57.7689260 -100.6674170 16.3788926
57.9293147 -100.5952880 13.5190599
57.8543469 -99.5156765 19.2459989
58.0083355 -100.2410650 14.3212844
57.9158850 -100.3155112 15.7011505
57.9004399 -99.1540253 19.7738595
58.0764860 -97.9020000 21.4275904
58.1232160 -97.4747986 22.0838264
57.9529926 -97.7063254 22.6645134
57.7107407 -98.2831046 22.9682680
58.1294261 -100.0818014 12.5719029
58.0574386 -98.2691422 20.7086429
57.9939224 -100.6824002 10.9623196
57.9661541 -100.8611992 9.9044396
57.9411462 -100.9613052 9.4447071
58.0243766 -99.1892144 18.5982641
58.0595471 -100.5475447 10.2544967
58.1865534 -100.0268832 11.4808241
57.9991490 -99.9177769 16.3265690
58.0720194 -99.9263227 15.0455358
58.0628365 -98.5455364 19.9856814
58.0677949 -98.8000259 19.2866642
58.0759197 -99.5284095 16.8974586
58.2452491 -99.5952636 13.5835977
58.2131557 -100.1119912 9.4440896
58.2672097 -99.8761132 10.4840305
58.1441931 -99.5784625 15.6764388
58.2779385 -97.2646177 21.5256680
58.3157018 -97.4354520 20.8354462
58.2149029 -98.7567008 18.0106517
58.3154932 -98.6884087 17.1064120
58.4000945 -96.7341363 21.9754558
58.1912361 -96.9541371 22.8046365
58.2399368 -97.9079306 20.2020910
58.2325794 -99.1619304 16.2795726
58.2606606 -98.3946323 18.6741278
58.3045818 -97.9864597 19.4550101
58.2471341 -99.4632393 14.4580835
58.4239177 -99.2379934 11.8998671
58.4417731 -99.0814418 12.7626490
58.2820438 -99.2425606 15.0980651
58.4833957 -96.7738256 21.3073120
58.3509393 -98.9188254 15.6279821
58.4511757 -99.2419422 11.0442229
58.4919937 -97.8920981 17.9419108
58.4624484 -97.7312103 18.7625401
58.4427528 -99.3665531 9.8501975
58.5050173 -99.1912335 9.2773736
58.4657788 -97.2929969 20.0304035
58.6216748 -96.6278017 20.6487942
58.4533326 -98.8705307 14.0565010
58.4120564 -98.9052504 14.6596842
58.4984161 -98.8221467 13.4078609
58.5001446 -98.3481109 16.0595682
58.5118756 -99.1120711 10.3474511
58.5804172 -97.2173214 19.2512199
58.7078296 -97.5183100 16.8266855
58.8087961 -95.8047956 21.5503685
58.5284159 -96.1336270 22.5809179
58.4596470 -98.6682400 15.1315201
58.4817268 -98.5191241 15.5324666
58.6784817 -97.1590504 18.4924807
58.7011874 -98.3332917 12.1483635
58.6292855 -98.6421630 11.3912066
58.8072985 -96.9894901 17.7240800
58.6486012 -98.4039232 12.9668377
58.7435216 -96.5720564 19.7903775
58.7082356 -98.5142142 9.6967518
58.6125366 -98.1451944 15.3182335
58.6122125 -98.2835144 14.5645859
58.6837120 -98.5325724 10.6601529
58.6988144 -98.1487110 13.6745879
58.9274205 -95.8790854 20.3755293
58.8388480 -96.5493098 18.9758427
58.7955751 -97.4886641 15.7364495
58.8225909 -97.5653157 14.8922941
58.8835962 -97.8461727 11.2024564
58.9002036 -96.5623036 18.2973631
59.0378717 -95.8566666 19.4566622
58.8216744 -97.6791680 14.2278355
58.9140877 -97.8154987 10.2780377
58.9005798 -97.6233929 12.8421783
59.0576679 -96.6048762 16.1643792
58.9908250 -96.6099203 17.0553550
58.9774847 -97.4768773 11.9733959
58.9737333 -97.6549014 9.5650451
59.1222048 -95.2460319 20.7872130
59.2255518 -94.8251262 21.3477965
59.1878444 -94.6052149 22.3136358
58.8064753 -95.4142436 22.6087291
59.1033921 -95.9178209 18.5619332
58.9542054 -97.3494351 13.6594549
59.0736456 -96.7478231 15.1584633
59.0196662 -97.0445871 14.3496161
59.0886585 -97.2317681 10.6311794
59.1879375 -96.8663767 11.3346353
59.0813421 -96.1869359 17.7277476
59.2436902 -95.1587036 20.0134683
59.1429174 -97.0917940 9.9140340
59.3843944 -95.0510949 19.0143343
59.2130721 -96.7005715 12.3391431
59.1635443 -97.0432535 9.1180187
59.1092408 -96.9356224 13.1337214
59.3909398 -95.2876732 17.8899523
59.4178736 -94.5558473 20.6422191
59.3062043 -95.7427844 16.8292057
59.4775155 -95.5145061 15.3752035
59.1748580 -96.6564864 13.7287406
59.2720434 -96.2628201 14.4296428
59.3129732 -96.5219438 10.4279397
59.4012514 -96.2642729 9.4675096
59.5886372 -94.3515450 19.7940823
59.6027784 -93.9095169 21.4391481
59.3037680 -96.3388309 13.0981598
59.6593954 -94.4912583 18.3263756
59.6865006 -94.2763612 19.0413948
59.3594536 -96.3009447 11.6976788
59.4795197 -95.9649980 11.0714110
59.5557503 -94.9906483 17.1410460
59.6020967 -94.9906856 16.4375622
59.4192147 -96.0871130 12.0684095
59.4473779 -95.9559456 12.5641106
59.3917668 -95.9984362 13.6994394
59.7410388 -93.8339978 20.4603951
59.4980828 -95.8721563 11.6751445
59.5763251 -95.6942290 10.1516973
59.4985969 -95.6063718 14.2615233
59.6634895 -94.6155265 17.6119991
59.4880171 -95.7744494 13.1214745
59.8535798 -94.3897218 15.9068126
59.7396307 -94.9058384 14.2448172
59.9067621 -94.3626687 14.9295079
59.8283373 -94.3033174 16.9224851
59.6719421 -95.3982621 9.3500745
59.8640665 -93.7642604 19.4393769
59.8046482 -93.8031524 19.9295040
59.6167408 -95.3414664 13.5527169
59.5792606 -95.5936164 12.0656891
59.6542582 -95.4010785 11.4730718
59.6831068 -95.2279046 12.6901409
59.7684719 -95.0787589 10.7420553
59.8237887 -94.9211940 9.8555097
59.9521361 -93.7090516 18.6174624
60.0123964 -93.1191593 20.9300723
60.0106679 -92.9019228 21.8715854
59.6409999 -93.5188457 22.4962775
59.8972701 -93.9899236 17.7640952
59.7760677 -95.0031579 11.9228950
60.0378402 -93.2524055 20.0127456
59.8265640 -94.8784277 11.3627063
59.8641708 -94.7899893 9.2110066
60.1347052 -93.1756720 19.2218330
60.1614378 -93.5188606 16.3710900
60.0840636 -93.6067402 17.2011983
60.1590648 -93.6321542 15.3880250
59.9045083 -94.5242718 13.2934311
59.9747188 -94.3872929 12.3077082
60.0416325 -94.0733403 14.0476907
60.0269102 -94.2933038 10.2453157
60.0361750 -94.2587405 9.4386581
59.9423610 -94.5164189 11.6383107
59.9945933 -94.3803713 11.0391090
60.2151640 -93.1942016 17.8828202
60.1804480 -93.6458930 14.6013135
60.2313839 -93.0491835 18.6206587
60.3420846 -92.3325419 21.3219374
60.3558049 -92.4750119 20.4599220
60.4730844 -91.8600485 22.2593136
60.0044504 -92.6684365 22.7709208
60.3742376 -92.5780833 19.6266938
60.1438396 -93.9210132 11.5605453
60.2637976 -93.5800821 10.6897084
60.3338368 -93.0105671 17.0458034
60.2780767 -93.5273319 9.7130006
60.4326203 -92.8973332 15.6982206
60.4586788 -92.7695036 16.4096840
60.1267852 -93.9185917 12.8234830
60.2533780 -93.5837626 12.2239683
60.1573810 -93.8001797 13.3809699
60.3687875 -92.6828459 18.9920887
60.3711456 -93.1870043 13.8264187
60.4341254 -92.9610878 14.8039497
60.5032034 -92.4677029 18.3689166
60.5276413 -92.5023034 17.5326541
60.4404062 -93.0644572 11.4672389
60.6344566 -91.8176323 20.9002998
60.7497431 -91.7385221 19.9496597
60.4140535 -93.0993035 9.0683037
60.4557842 -93.0095911 10.1373820
60.5295449 -92.7762613 9.5269857
60.5787411 -91.8148980 21.4950945
60.3507087 -93.2860449 12.9085248
60.5754033 -92.4507529 16.8522783
60.5138279 -92.8496942 10.6730321
60.6169477 -92.1281278 19.1024859
60.4918487 -92.9115340 12.2764539
60.7420132 -92.1632275 15.1792821
60.6571995 -92.3197493 16.0173643
60.7339703 -92.2236145 14.1158914
60.5925210 -92.5633535 8.8829836
60.7136078 -92.3011601 12.9166264
60.6102161 -92.3987105 16.4494365
60.7786775 -91.9083431 17.8715792
60.8065836 -91.7861462 18.5505375
60.8721636 -91.2460238 21.4881469
60.8875081 -91.0492539 22.3118775
60.2706932 -92.0040831 23.2377574
60.8274899 -90.8634216 23.5582236
60.7164577 -92.2791585 10.9858131
60.7092790 -92.3110321 11.8667698
60.7791282 -91.9614136 17.1484984
60.6990606 -92.3055857 10.0921439
60.7438721 -92.1436325 9.2789801
60.9170347 -91.4985985 19.1033129
60.7621856 -92.0405388 16.5020656
60.9204993 -91.2904367 20.6693225
60.9554015 -91.6286781 15.8436336
61.0384531 -91.3301557 18.1734730
61.0024817 -91.3663954 18.6584704
61.0351861 -91.3830847 17.4297281
61.0161312 -91.5109366 14.5659903
61.1407831 -91.2022367 13.3940047
61.0836260 -91.1173373 19.5450019
61.1146465 -90.9861475 20.1624520
60.9834194 -91.5795863 15.1910754
61.0140786 -91.4631337 16.6774262
60.9474853 -91.6701928 12.1912425
60.9794892 -91.5991366 12.7518624
60.9891675 -91.5060267 10.4566049
60.9540902 -91.5639699 9.5994705
60.9562993 -91.6272625 11.3678826
61.2580143 -90.8399969 18.7903270
61.3652207 -90.6800404 17.7156720
61.2402894 -90.6566978 20.8302196
61.2307340 -91.0034850 15.1654612
61.3793358 -90.2279615 21.9311342
61.2808503 -90.8769220 14.3397693
61.2517558 -90.9371823 16.9675723
61.3174886 -90.8088833 16.1506720
61.1245297 -91.2143216 12.5065316
61.2136610 -90.9562856 11.7422920
61.2008795 -90.8522829 9.0883970
61.1634627 -90.9972340 9.8338826
61.1727051 -91.0304934 10.9733669
61.2737499 -90.7289311 10.3581026
61.3889582 -90.5129313 19.7010953
61.3518581 -90.6338841 12.4564143
61.3150820 -90.5908421 20.2591438
61.5499914 -90.2306512 13.8927205
61.5367405 -90.2093947 12.9976263
61.4077672 -90.3303325 9.6789189
61.5387931 -90.3365985 16.8464351
61.4783987 -90.4249698 14.6749308
61.6007075 -90.1751965 15.3774321
61.4525974 -90.1650786 9.0131592
61.4399910 -90.3270766 10.9516894
61.5168475 -90.1794955 11.7586255
61.6675392 -90.0648087 18.3196198
61.6167001 -90.1310295 19.0755371
61.4802539 -90.1762545 10.2681639
61.5913719 -90.0312811 12.3446314
61.6475306 -90.0985226 16.1563028
61.7811903 -89.8505822 17.4564291
61.5217425 -90.2014226 20.3295536
61.5665205 -90.0456235 20.9499449
61.6635345 -89.6297395 9.2862323
61.6322085 -89.7583738 9.9220201
61.8229583 -89.7107497 19.7214223
61.7794096 -89.4778371 11.1334743
61.6568439 -89.7326395 10.4421591
61.7409535 -89.8267627 14.5931076
61.7369935 -89.6428600 11.9324801
61.8248247 -89.4837305 12.5837950
61.7743693 -89.6643251 13.3173736
61.9128756 -89.3957689 13.9299715
61.8917756 -89.4537941 21.1481825
62.0440766 -89.0761763 21.9999980
61.7065616 -89.4298851 23.1427401
61.2106472 -90.2838856 23.1431462
61.8808083 -89.6300077 16.6134592
61.9086288 -89.5310938 15.7820005
61.8950203 -89.5171091 15.1077202
61.8023351 -89.6828771 20.4968601
61.9613938 -88.9202431 9.9463034
61.9820803 -89.0366957 11.8490327
62.0199405 -89.2055109 14.5715829
62.0570555 -88.9945850 13.1849153
61.9519390 -89.5169601 18.8282486
62.1738620 -88.5005146 11.0659748
62.0397069 -89.3582404 18.0312973
62.1076971 -88.7991562 12.4672642
62.3449311 -88.4439498 14.0203703
62.2023456 -89.0222266 17.1941370
62.2245669 -88.9132097 16.2101481
62.2247644 -88.8246149 15.2023248
62.2140989 -88.9846087 20.3033704
62.2696243 -88.9337733 19.2957073
62.5021085 -87.6133367 10.2320816
62.2939430 -88.3058757 11.9314864
62.3458363 -88.6848643 21.1739857
62.4006949 -88.1652236 12.8016742
62.5657737 -88.2432684 21.7869189
62.3652674 -88.4017199 22.8008237
62.3029321 -88.8772830 18.4829198
62.3404458 -88.7919739 17.8624410
62.5466928 -87.6424462 11.3254348
62.6275390 -87.9601017 14.9302697
62.5738576 -88.1739557 15.7811120
62.7267212 -87.5180811 13.3482981
62.8133044 -87.4657482 14.2011605
62.6793653 -88.2211551 19.6591485
62.6884252 -88.1672278 20.5947552
62.5708848 -88.2713050 16.6603569
62.5889972 -88.3092284 17.4785685
62.5697523 -87.6850337 12.0947761
62.6474619 -88.2666185 18.7513661
62.6670718 -88.1529003 21.1951230
62.7272353 -87.3979852 12.5827417
62.5690371 -88.3819908 18.1083176
62.8937483 -86.9084299 11.8460534
62.8551021 -86.8387744 10.7901050
62.8150180 -86.8368000 10.1185953
62.8460124 -87.5873789 15.4670104
62.9671961 -87.2558951 14.9100041
62.9533529 -87.4762982 16.2104648
62.8865957 -87.7074301 17.0599017
63.0630776 -87.4891952 21.2300885
62.8935322 -87.6239911 22.3411489
62.9642978 -87.6523480 17.9508869
63.0555302 -86.7074355 12.8359674
63.0236045 -86.9233981 13.6548197
63.1554723 -87.4230862 20.0102739
63.0955398 -87.5032246 18.9892743
63.1935596 -86.6864845 14.3489530
63.1142259 -86.0991925 10.0401277
63.1102771 -87.0620459 15.5021222
63.2654428 -85.9294236 11.1832656
63.2421523 -86.1546323 12.1171931
63.3544549 -86.8156403 16.9888493
63.2145330 -86.7652893 15.0144715
63.3319318 -86.7010653 16.0063636
63.3312166 -86.2324908 13.5518024
63.4480417 -85.8099386 12.7664711
63.4425208 -85.2027014 9.4558932
63.6007413 -86.5463093 18.2576869
63.5277182 -86.7765024 20.4781219
63.2978827 -87.0023519 22.0562648
63.6741146 -86.4215121 21.4671660
63.5170937 -85.1731971 10.3406385
63.3499399 -86.5585878 15.4077681
63.5062382 -86.8251398 19.3174928
63.5034293 -86.8540704 19.8801011
63.4515956 -86.2520784 14.9111496
63.5531470 -85.8894959 14.2280180
63.5509640 -85.4088366 11.9678117
63.6167750 -86.3608718 22.5972459
63.2014945 -87.0506018 22.7542948
63.6406615 -86.0052481 15.6073421
63.5809451 -86.2675607 16.3190551
63.6946559 -84.9065110 11.1878747
63.7115166 -85.3707567 13.4922154
63.7636483 -84.3281820 9.0054050
63.7789220 -86.0781968 17.3375998
63.7315437 -86.0584825 16.7518221
63.7068152 -84.6061260 9.7745797
63.7556389 -85.5970979 14.8691675
63.7944192 -84.9789307 12.6464590
63.8877004 -84.2749327 10.3953779
63.8061166 -86.3082558 19.8001843
63.8448074 -86.2042382 19.0632660
63.9344081 -86.0428065 20.5859095
63.8591722 -84.6661627 11.9121922
63.8704821 -85.1873010 14.2128319
63.8424456 -85.7352093 16.2355397
63.8982356 -85.4087323 15.3467590
63.9089867 -85.4932368 15.7701969
63.9252216 -84.0421990 9.6695032
64.0947148 -85.5563506 17.8023316
64.1194656 -85.6339037 18.6287500
64.1668513 -85.5363309 21.2550666
64.0575811 -85.6228918 22.1408866
64.1749501 -83.3120570 9.2101311
64.0862137 -83.9766487 11.3278646
64.0942305 -85.3690729 16.8660283
64.0342459 -84.5727101 13.3064147
63.9407933 -84.9137604 13.7557462
64.1133189 -84.8240703 14.9258673
64.1520321 -85.6389105 19.4011200
64.1323775 -85.6925324 20.0378001
64.0923455 -83.6795196 9.9543380
64.1917214 -83.5382491 10.5114914
64.1602054 -84.0420648 12.4384100
64.0668869 -85.1070359 15.5723784
64.0912801 -85.1894245 16.0935111
64.2619133 -85.4159892 20.5457713
64.1395450 -84.5165476 14.0285771
64.3153787 -84.6014023 15.7348420
64.2745271 -83.2040757 9.9664405
64.3096492 -84.8040506 16.3811669
64.4479170 -83.6028382 13.4985903
64.3920898 -83.1088200 11.0243075
64.4020811 -83.2686499 11.8239168
64.4389987 -84.7919658 17.4487419
64.4279867 -84.6755877 16.8361533
64.4729137 -84.8627910 18.2421356
64.4715056 -84.9899575 19.9411735
64.4028038 -82.9520226 10.3839915
64.4528568 -84.8804712 21.8304284
64.3668920 -84.8883018 22.6789974
63.9975592 -85.5789557 22.9920130
64.4776374 -84.9491656 19.0507993
64.4178912 -83.9856341 14.4991297
64.4287542 -84.1680691 15.1714608
64.5045489 -82.5265646 9.7641321
64.4884780 -82.4038312 8.9366501
64.4915476 -83.2216293 12.5600751
64.5638183 -84.7528055 20.9181514
64.5955130 -84.1518044 16.3610708
64.5863190 -83.9442760 15.6495031
64.6343976 -82.3566467 10.6408913
64.6317601 -82.5565532 11.4575801
64.6439567 -82.6978683 12.1376608
64.6990612 -83.4759623 15.0678242
64.7569075 -84.3545273 19.4324348
64.8747832 -84.0760767 20.2355683
64.6649152 -83.3162144 14.3302251
64.7973865 -82.4898556 12.9066976
64.8594499 -82.6626495 13.9471665
64.6553412 -84.2263922 17.0797855
64.7930652 -84.1673240 21.5521529
64.6857917 -84.2692107 22.3057643
64.8042485 -84.0298384 17.7906808
64.7948906 -84.2083395 18.6948273
64.7419244 -81.7307159 9.1932612
64.8059100 -81.7193687 10.0123305
64.8423135 -84.1347501 20.9539756
64.8775920 -83.3188444 15.9253012
64.8191944 -81.9525272 11.1761838
64.8735464 -81.6700011 10.6650908
64.9356693 -83.4713206 16.8924164
64.8895428 -81.9443837 11.9430851
64.8868233 -82.8488246 14.6618355
65.0096834 -82.7494487 15.2688632
65.0796145 -83.5457519 19.2286223
65.0286898 -80.9376165 9.4861966
65.0865361 -83.5069045 21.0124571
65.0443509 -83.4148750 22.1218430
65.0502741 -83.5316852 18.3759555
65.0407448 -81.0870454 10.3206271
65.1573315 -81.6697106 13.5883391
65.0731251 -81.6131011 12.6852067
65.1404411 -83.1388012 17.6840350
65.0575683 -81.2264010 11.1743025
65.1842058 -82.0421502 14.7179430
65.2261674 -83.1999406 20.0731605
65.1448667 -82.5997144 15.8614144
65.1079118 -82.8691870 16.3869634
65.2150363 -82.2476447 15.4209649
65.1861802 -81.0572952 12.0687075
65.2599037 -82.5968832 16.9292353
65.1973337 -80.4978684 9.9670617
65.2415678 -80.2291855 9.4655743
65.3833747 -82.7623978 20.6101909
65.3582290 -82.7332288 21.3735159
65.3253719 -82.7577114 18.4042901
65.2502626 -80.4515183 10.6158461
65.3223693 -80.8930844 12.9244104
65.4008687 -82.6814547 19.3276908
65.2647465 -82.4064761 16.3024813
65.4438138 -81.0642540 14.3336961
65.3978661 -80.9113681 13.6139151
65.3216317 -80.4048032 11.4342216
65.3534532 -81.8252936 15.4030155
65.4796064 -81.3001543 15.1583776
65.3615743 -82.4765265 17.6073685
65.3292909 -82.0770115 15.8788096
65.3688610 -79.6509385 9.0869423
65.4559210 -82.5814977 19.9771076
65.4360130 -80.2486092 12.2580621
65.4240176 -81.9569081 16.4370481
65.3892532 -79.7648653 9.9441297
65.4892847 -81.9306225 17.1148945
65.4870421 -80.4820359 13.3451326
65.4998645 -80.2558511 12.9191093
65.5374005 -82.3033080 20.8692029
65.4016435 -82.4627057 22.1183263
65.6359494 -81.9017068 21.3722195
65.4615909 -79.7064006 10.8630098
65.5333623 -81.9780827 17.8594608
65.5829608 -82.2103396 20.2964321
65.4998198 -81.5146640 15.8529915
65.6040087 -81.9415972 18.7070277
65.5620247 -80.4380774 13.8805481
65.5168369 -79.7243193 11.6387745
65.5868128 -81.9407776 22.0384784
65.5180141 -81.9813013 22.5773882
65.1924983 -82.7397481 23.0779443
65.6333342 -82.0210353 19.6004231
65.5396581 -78.9479390 9.3337297
65.6183064 -81.3096985 16.5273622
65.6791404 -81.3133866 17.3298959
65.6143054 -78.8418725 10.2882776
65.6247959 -80.6841627 14.9289519
65.6422377 -80.4009885 14.4536691
65.6370223 -79.9027383 13.3917965
65.6029209 -79.7460377 12.6841981
65.5798987 -79.6468183 12.1555468
65.6455010 -79.0291131 11.2850834
65.6983703 -81.4361572 18.0362090
65.6355098 -79.2990774 11.8631180
65.7016560 -80.7073936 15.7242771
65.6797439 -81.8840489 20.6433609
65.7328218 -79.8571408 14.1471503
65.7431930 -81.3619643 22.0072921
65.6988919 -78.1517029 9.4936211
65.8043101 -81.1721757 18.5875613
65.7736436 -81.4799741 19.2180201
65.7445341 -81.6937461 20.0985204
65.6917393 -79.2107806 12.3561500
65.7507405 -79.2061239 13.0472882
65.7418072 -78.3788189 10.8905118
65.7845214 -77.8783560 10.2583664
65.8351704 -81.3018754 20.5637347
65.8475310 -81.1578557 21.2398805
65.8419132 -80.5009305 16.7450365
65.7237694 -78.8770616 11.9141154
65.7945946 -79.3283880 13.7327546
65.7916591 -78.3526078 11.5960510
65.8593327 -80.7275921 17.7820250
65.8013448 -79.9598768 14.9773424
65.7862872 -81.5358534 19.6527913
65.8021793 -77.5247663 9.5821517
65.8340752 -78.4856603 12.5093022
65.9434348 -79.7401071 15.9139652
65.8495203 -77.7640343 11.0764271
65.9104437 -79.1167915 14.4525580
65.9099221 -80.9034333 19.2816071
65.9642220 -80.4652050 18.5444579
65.9181774 -78.5643160 13.6353141
65.8648014 -76.9066066 9.3825348
65.9587309 -80.5907771 21.4948189
65.9023523 -80.5038065 22.3874114
65.6631067 -81.3221857 22.8901673
65.8639818 -81.2245831 19.8526271
65.8595860 -77.2171617 9.9750627
65.8909455 -77.2171617 10.5835367
65.8458322 -81.2819228 19.5068344
65.9272373 -77.5587484 11.9619090
65.9913346 -80.5869102 20.7183585
65.9793541 -80.6604028 19.9671946
66.0028830 -80.0060481 17.3386410
66.0096034 -80.1358521 17.9628935
66.0192296 -79.7220990 16.6889802
65.9720749 -79.2402923 15.2301509
65.9330338 -77.1597475 11.2391170
65.9327060 -76.5204504 10.1312483
66.0033152 -77.6252225 13.1032979
65.9584180 -76.7151713 10.8983694
66.0061762 -78.4614757 14.3602509
66.0824850 -78.4407184 15.0904013
66.0854504 -80.0206140 19.2174502
66.1060214 -79.7696263 18.3608197
66.0147965 -76.5107870 11.7361629
66.0674274 -78.9803714 15.7198533
66.1060438 -79.1196153 16.3553208
65.9956336 -76.1321634 10.8652515
66.0295784 -76.9900680 12.5403106
66.1014691 -79.6653703 17.7486241
66.0895109 -77.7424499 14.2614422
66.0617352 -79.9920559 21.6968674
66.0762116 -79.6432570 22.2620983
65.9626350 -79.8670799 22.9691993
65.7658949 -80.5420503 23.4661363
66.1236048 -79.8516572 20.9260192
66.1196634 -79.9357370 20.0967304
66.1427081 -79.2590678 17.1400495
66.2297308 -79.1696459 18.6676886
66.2375167 -79.2332217 19.4825102
66.0839155 -76.9066364 13.1579796
66.0947785 -76.3448775 12.7727827
66.1057532 -77.1354809 13.6862434
66.1605820 -76.4445290 13.7035875
66.1797300 -78.4062520 16.0121657
66.1721081 -77.7098984 15.0900334
66.1934540 -77.9361427 15.5701358
66.2083626 -79.1326612 17.8903975
66.1914274 -79.2720541 21.4478355
66.1837310 -78.9889097 22.1627448
66.0949796 -79.0549666 22.9514223
66.2368536 -79.2531595 20.2745274
66.2252679 -79.2646259 20.8157916
66.2081316 -78.6568001 16.6804064
66.1652982 -76.9733191 14.2075168
66.2182420 -77.0639703 14.9042904
66.2948564 -78.3804804 21.6415767
66.2230104 -78.4199834 22.5163661
66.2568063 -77.7616873 16.0350371
66.2801266 -78.0150071 16.6154262
66.2516057 -77.3945376 15.5934077
66.3117319 -78.6371380 20.6789058
66.2695691 -78.5223320 17.2858909
66.3418397 -78.5557255 19.7540559
66.2234277 -76.5023902 14.4668063
66.3456842 -78.4562752 18.9200249
66.3238466 -78.4077048 18.0712864
66.3421378 -77.0969689 16.3530800
66.2983432 -76.8288374 15.5662512
66.3139671 -77.7615607 22.2225375
66.3861185 -77.5784701 21.5761755
66.3988367 -77.7942166 20.8996311
66.3834959 -77.1366432 21.9688490
66.3107857 -77.1113262 22.6436500
66.2418231 -77.7819008 22.9304191
66.2899017 -76.3311163 15.0989126
66.3633868 -77.6850134 17.3272435
66.3574412 -76.2835518 15.8429518
66.4177462 -77.8384283 20.0370941
66.4454699 -76.5881315 17.3478108
66.4146915 -76.2450472 16.5063292
66.4191321 -77.8756514 19.2643497
66.4280728 -77.4795860 18.3681138
66.4227307 -77.1487057 21.5654895
66.4423332 -77.1434605 21.1431291
66.4327368 -76.7262131 21.5497985
66.3740262 -76.4753446 22.1877880
66.4658621 -77.0967528 20.3877613
66.4799064 -77.0086423 19.3804391
66.5047616 -76.2807950 18.4606165
66.4705485 -76.4957666 20.8934452
66.5019527 -76.2584135 20.0695284
66.5189549 -76.1515126 19.2944314
61.6087392 -62.6310930 21.4821603
61.6924390 -62.9647374 22.1155342
62.1666685 -63.4077936 21.3345047
61.2533279 -62.3233840 22.0872257
62.1169880 -63.6157244 22.2619753
61.6644546 -63.1671026 22.8552297
61.3217540 -62.6218915 22.6659272
61.7954582 -62.5764728 20.5174871
61.1242093 -61.8598498 21.3362202
62.5908002 -64.1722083 21.8199883
62.4524020 -64.1629770 22.4883743
62.0909967 -63.8042167 22.9797177
62.1662997 -62.5482127 18.8661478
62.1923320 -62.9013404 19.6665004
62.6046136 -63.4021536 19.1173814
61.8638992 -62.3581707 19.6591299
62.5284091 -63.6162087 20.1710202
62.3902380 -62.5105351 17.8254731
62.6239479 -63.1440282 18.2998367
61.8808568 -61.7479272 18.2328578
61.6045259 -61.7608465 19.2635339
62.8025979 -64.2668009 20.9725965
63.0845129 -64.3005297 19.3541124
63.0382597 -64.4515455 20.2283412
62.9277080 -63.3552000 17.3457507
62.5653863 -62.3546951 16.7732872
62.1726513 -61.8992262 17.4381658
63.0257875 -63.8953969 18.3444489
63.0347431 -64.7704527 21.5323083
62.9027486 -64.8049116 22.3705489
63.4021312 -65.1751906 20.7512099
63.3963048 -64.3455833 17.5076127
63.0656406 -63.1551743 16.1692183
63.4168014 -64.0663281 16.5022835
63.3563772 -64.8938566 19.8853444
63.5085404 -64.8160800 18.4401367
63.5093600 -65.0176629 19.2822367
63.3992031 -65.4242933 21.7758603
63.3615032 -65.6388626 22.6984490
62.4947846 -64.4089878 23.0687615
62.8658012 -65.0535524 23.3261287
63.1783977 -62.9590973 15.2112488
63.4845793 -63.8209134 15.4416328
62.8138185 -62.3638965 15.7441646
63.4833574 -63.4599552 14.6355564
63.2373840 -62.6280457 14.2981037
62.9570335 -62.2888431 14.9931926
63.7272745 -65.5153170 19.7993759
63.7567192 -64.8924336 16.8101434
63.7306198 -65.0374293 17.6032055
63.8576150 -64.8158193 15.7419443
63.7694523 -65.9250617 21.2864000
63.9683008 -66.1035329 20.4954036
63.4279028 -62.6245439 13.3203901
63.6118725 -63.4247288 13.8378274
63.7343153 -63.3600652 12.9637094
63.5811687 -62.5459999 12.3173799
63.1048605 -61.8552715 13.6364298
63.2847846 -61.9270727 12.8776515
63.8956875 -64.4590259 14.3922577
63.8499260 -65.5512884 18.9213175
63.9383122 -65.5477718 18.0618502
63.8032258 -66.1961436 22.0525786
63.8797656 -64.0085563 13.4217283
63.9953688 -64.0523955 12.7075827
63.8970360 -63.5003820 12.1811749
64.0341938 -65.5711591 17.1979815
64.0905350 -65.5067116 16.3112544
64.1913936 -66.2993044 19.4111355
64.1500130 -64.7410452 13.2088847
64.2056912 -65.4819533 15.0406482
64.1352609 -65.4687509 15.7004129
64.1582459 -66.6571632 21.3204827
64.1624331 -66.0718754 18.5099896
64.4710660 -65.9041032 13.8136707
64.2038584 -67.0089349 22.2742967
63.7906566 -66.4565116 22.9731165
63.8393164 -62.9146844 11.3132996
64.1385168 -64.0681833 11.5968399
64.2062500 -63.7963489 10.2863275
63.6395812 -61.6434515 10.0693796
64.0034378 -63.2495880 10.7185170
63.5467172 -61.9606934 11.4330482
64.0683547 -64.0643388 12.1914651
64.2264485 -64.6357536 12.2788483
64.2905310 -66.2029684 17.7010968
64.4268543 -66.9600293 20.3234497
64.3673763 -66.2180409 16.7119745
64.4123778 -64.1838908 9.1796070
63.9837310 -62.8984049 10.0375172
63.8483539 -62.2959547 9.7112851
64.3755943 -66.0622343 15.7123487
64.4143745 -65.3784424 12.6385679
64.5680651 -65.5046627 11.3251833
64.4101501 -64.9461001 11.3475770
64.4813254 -66.1698729 14.8883313
64.6453500 -65.2314276 9.5504234
64.4574612 -64.6881387 10.0867264
64.5102262 -64.9965107 10.4236072
64.4802228 -66.7192414 18.4522755
64.6238476 -67.6434785 21.4179512
64.5873547 -67.0904294 19.3193201
64.6955892 -67.0519769 17.3041318
64.6836907 -66.8930560 16.0711762
64.6442771 -66.6839331 15.2741922
64.8903698 -67.8877011 19.8987871
64.6414757 -66.1004782 12.5633562
64.6939203 -66.7074993 14.6066546
64.8439229 -66.8909624 13.0245946
64.8859590 -67.1926588 13.9610274
64.8481697 -67.5519109 18.4988622
64.9208575 -66.5085688 9.9923704
64.6632984 -65.4297993 9.9254716
64.8842230 -66.8126494 12.0081631
64.9882033 -66.9967383 10.9920530
65.0876090 -68.6228126 21.0770220
64.8880303 -68.4892759 22.3015826
64.5368919 -67.7871928 22.6462185
65.0130287 -67.7472204 16.3586102
65.0865510 -68.0068508 17.4545646
64.9713129 -67.5783083 15.1014933
65.2573332 -68.5709864 18.6419170
65.2739629 -68.8040629 19.9934430
65.3330907 -69.6099401 22.0711753
64.8913905 -68.9121932 23.5110130
64.7200570 -68.3013797 23.0240561
65.0854260 -67.6423311 12.5133637
65.0638044 -67.6782280 13.2820206
65.1451573 -67.7261129 11.6185034
65.2406886 -68.3807880 13.9412312
65.1677325 -67.5715655 10.1340627
65.1584938 -67.3727244 9.1195703
65.2694106 -68.4456304 15.7189555
65.2917475 -68.5008839 16.6313704
65.4114038 -69.3506747 20.7321029
65.2930513 -68.5536712 14.9125094
65.2044713 -67.8368658 10.8572645
65.3404146 -68.6686635 17.4515508
65.3060451 -68.4602708 12.1700494
65.3659329 -68.5934052 11.1540835
65.2364716 -68.2716668 12.9659045
65.4849634 -69.2728907 19.4676667
65.5185208 -69.2180693 17.8042501
65.5479580 -69.3633482 18.6582301
65.3219000 -68.2825521 10.3724506
65.4518679 -69.2725703 20.0972315
65.3651953 -68.4040636 9.4500938
65.4608905 -69.0259263 16.1022488
65.5062273 -69.1574514 16.8526229
65.4581413 -69.1844746 12.9152816
65.5065998 -69.2524910 15.2970999
65.4445440 -69.0937862 14.5198116
65.5275136 -69.4698170 13.8756093
65.6453073 -70.1540336 20.9617820
65.7219589 -70.7031339 21.6851644
65.5897334 -70.7100332 22.8025038
65.2920753 -70.0249523 23.5299245
65.4706582 -68.9951777 10.2498438
65.6103194 -69.7878972 20.1254450
65.5087233 -69.3317205 11.8364114
65.5591711 -69.5119277 10.9481998
65.5481592 -69.3645850 9.4164843
65.6248257 -69.7923601 14.5819699
65.7372326 -70.0539276 19.2109980
65.6679943 -69.7957426 16.0813965
65.6211525 -69.8136911 10.1317773
65.7069311 -69.8666498 17.1418488
65.7266602 -69.9242204 18.1452818
65.7020882 -70.0336769 15.2129475
65.6776279 -70.2116638 12.3161254
65.6707734 -70.1493919 13.2885128
65.6493232 -70.0235516 11.4900758
65.6642020 -70.0727999 9.4174584
65.6964257 -70.1984838 14.0111865
65.8839121 -70.8076432 20.1719813
65.8140630 -70.6662312 14.6125723
65.8254251 -70.7961768 20.9846776
65.9110993 -70.6738606 17.5024439
65.8821911 -70.6662238 16.4740607
65.7011122 -70.3183264 10.7956538
65.7434613 -70.6339031 9.9298470
65.8476874 -70.6526190 15.5304857
65.9235790 -70.6828907 18.4941869
65.7701790 -70.7464740 11.5260081
65.9784749 -71.5930387 21.1842880
65.8390447 -71.4584738 22.2775489
65.9488663 -70.8365217 19.2618612
65.8246279 -70.8991960 13.7082571
65.8112317 -70.9166452 12.9005611
65.8359900 -71.1213276 12.2272279
65.8627078 -71.7139021 9.5866555
65.9593865 -71.3215545 15.0528280
66.0203919 -71.4704841 15.7970879
65.8254325 -71.1932406 10.7090510
65.8964366 -71.6151074 11.5798358
65.9904480 -71.7404634 14.2654488
66.0512224 -72.6477429 22.3894846
65.7400563 -71.7124194 23.5523153
66.0703480 -71.4155883 19.5047427
66.1557093 -72.0359609 20.0852249
66.0958663 -71.4812279 17.9066081
66.1010221 -71.6805384 16.7930555
65.8873320 -71.3972226 12.6667302
65.9401119 -71.8356818 12.3411156
66.0894066 -71.4108646 18.7954642
65.8832565 -72.2103193 8.5681351
65.9414530 -71.7080832 13.1807504
65.9381375 -72.1472278 10.7933125
66.0940111 -72.0736533 15.1270460
65.9646466 -72.7363229 10.0239459
65.9584180 -72.0515251 11.8815657
65.9669787 -72.2147599 11.5331328
65.9977496 -75.4033402 10.2173621
66.0080835 -72.5413412 12.0443022
66.1924556 -72.4436268 15.8505701
66.0050511 -72.7219284 11.3328164
65.9974515 -72.8462785 10.7444571
66.0160705 -72.4089593 12.7677144
66.0888031 -72.7407783 13.6030158
66.2286878 -72.8135780 20.9128875
66.1531910 -72.7083385 14.6386884
65.9911856 -73.4152272 9.7193774
65.9850091 -73.8364160 9.1956342
66.0473406 -75.4825100 11.4005590
66.0896525 -75.6716132 12.2872023
66.0150275 -73.3885244 10.4665915
66.0155863 -74.2002055 10.0996681
66.0519451 -73.3453184 11.7616020
66.0763457 -73.2087940 12.6477722
66.1901757 -72.6617724 15.2258109
66.0302341 -73.2387751 11.0883629
66.2166402 -72.1347108 19.1278420
66.0490021 -74.6910647 11.0261710
66.0505667 -73.8898516 11.1248735
66.2208498 -72.1116439 18.3477178
66.2821680 -73.6306384 21.6239933
66.1970600 -73.6821368 22.5281548
65.9071580 -72.7432296 23.8065440
66.0685524 -73.6403391 23.5394202
66.2708059 -72.5104883 17.4351837
66.2612990 -72.5951642 16.5908914
66.1058649 -74.4675249 12.3118823
66.1604330 -75.5453482 13.2364267
66.2131608 -73.5799074 14.3259503
66.1530793 -73.7350434 13.3742047
66.3177818 -72.8486478 19.5440128
66.2859529 -72.7908462 20.1734565
66.2643388 -73.2823387 15.3071433
66.2253425 -74.6211931 13.9494147
66.2533119 -75.7221431 14.3965967
66.3187727 -73.1805190 16.1507353
66.3638711 -73.1123760 18.4283219
66.3072690 -74.2259771 15.0402989
66.3793683 -73.5400766 20.1530010
66.3386807 -73.5458732 20.8920389
66.3114265 -75.0055090 14.9157429
66.3447604 -73.0941072 16.7737976
66.4041936 -73.5441372 17.2465257
66.3422868 -75.6227002 15.3697822
66.3631782 -73.9134476 15.9050468
66.4165989 -73.5682547 19.2510206
66.3839802 -74.8114213 15.7917421
66.4112046 -75.6035671 16.1506459
66.3997233 -74.2315128 20.8809115
66.3541704 -74.3832141 21.6684695
66.2874505 -74.1675571 22.2092178
66.3873926 -73.6046582 16.5265184
66.4137155 -75.1193762 21.3800333
66.3542598 -75.6472871 22.2655479
66.4315820 -76.0190114 21.5030164
66.3235337 -74.8139843 22.2702567
66.2533566 -75.2975717 23.0939798
66.2655011 -76.3266981 23.1250357
66.4311796 -74.2634162 16.6284367
66.4458796 -75.0244856 16.5337119
66.4652362 -74.1015300 17.8074278
66.4740130 -74.1268098 18.6432023
66.4595142 -74.3907765 20.0787988
66.4729625 -74.2333159 19.4262918
66.4601326 -74.1704553 17.2213912
66.4789677 -75.0891268 20.3575995
66.4633438 -75.6523833 16.8970823
66.4769784 -75.7648349 20.7289122
66.4828271 -74.8115927 17.2545314
66.5080026 -74.9467388 19.5596237
66.5039942 -75.6199509 17.7100170
66.5037706 -75.6715983 20.2061441
66.5185153 -74.8667195 18.8391674
66.5176511 -75.6074563 19.7256040
66.5113330 -74.8433396 18.0920139
66.5282607 -75.4512623 18.3902103
66.5289462 -75.5572841 19.0115161
55.8896512 -50.4054949 20.9049284
55.9974425 -50.2157398 20.3944724
56.1281480 -49.5584682 19.7354890
56.1796650 -48.9377752 19.4775704
56.0996048 -51.1678420 21.0745316
56.0596399 -51.5382439 21.7967518
55.7862669 -51.1063114 22.6404890
56.2236495 -50.1905717 19.8700558
56.2766492 -50.9049110 20.2778820
56.3449711 -49.5019220 19.3359032
56.3595481 -49.8868600 19.4509197
56.5024875 -49.2718741 19.0492384
56.5527752 -48.7837046 18.9170092
56.3216954 -48.3663976 19.2037728
56.3794412 -52.0019978 21.1215150
56.4014576 -52.4535924 21.7619035
56.1043099 -51.9536138 22.4226415
56.3967936 -51.6024083 20.5960423
56.4702712 -50.7075638 19.6747929
56.6538833 -51.2266643 19.6569841
56.6262007 -51.6663939 20.0685691
56.5381311 -50.3290370 19.3426311
56.6430613 -49.8281419 18.9951044
56.8827763 -49.2782146 18.5571332
56.5064438 -52.4665527 21.2592706
56.6894002 -52.8791621 21.2322380
56.8376780 -53.5348020 21.8117405
56.3824028 -52.7583174 22.6795785
56.6912554 -52.2297621 20.4524584
56.6268452 -52.5095984 20.9244415
56.9044650 -48.6079343 18.4574872
56.6189699 -48.2123382 18.7991001
56.7447618 -50.8553013 19.2452185
56.8881184 -50.4692234 18.8555550
56.9328666 -51.8105850 19.5401497
56.9025464 -52.1766320 19.9008733
57.1088195 -50.0122346 18.4310079
56.9830686 -51.3759255 19.1474184
56.9383763 -52.9463030 20.5816757
56.9323599 -53.3345528 21.0607201
57.0493340 -50.9871840 18.8315175
57.0506193 -52.6633486 20.0278647
57.1867451 -48.9204042 18.1424413
57.3310256 -48.3285524 17.9825593
56.9406338 -48.1080748 18.4034090
57.1172424 -53.7625961 21.0643057
57.2957434 -54.2912260 21.2613177
57.2587699 -54.6075143 21.9731145
56.9397993 -54.0903658 22.5244928
56.6824935 -53.5339415 22.7132048
57.3559105 -50.7580936 18.3485243
57.3996045 -49.4808592 17.9782957
57.1681187 -53.5219349 20.6150468
57.2649911 -52.4894409 19.4466487
57.2609827 -51.9086123 19.0282408
57.3675260 -51.4499284 18.6075103
57.4834421 -53.4570217 19.8269933
57.5837381 -50.2098836 17.9247577
57.4257895 -54.0687032 20.5737855
57.4979410 -48.8954857 17.8037211
57.5773604 -52.3970239 18.8190676
57.7129722 -53.0291349 19.0242473
57.5288944 -51.9533716 18.6194628
57.4848466 -54.8137277 21.3927943
57.7069558 -55.4208048 21.5778742
57.4439913 -55.2359447 22.3878194
57.1579225 -54.7094569 22.8079651
57.7947982 -51.3582379 18.0174001
57.6950498 -51.7969280 18.3044970
57.7875935 -50.7672504 17.8444758
57.6920472 -54.8407771 20.7680967
57.8240417 -49.7983173 17.5843146
57.8289144 -49.2160209 17.5069924
57.8202084 -54.4449911 19.9735984
58.0942445 -50.3952168 17.4310096
57.8200556 -52.2451997 18.3487386
57.8291267 -48.5401601 17.4937174
57.9729378 -52.8239347 18.4449274
57.9471886 -53.6597893 19.0439541
58.0386631 -54.2331785 19.2984436
58.0238923 -51.9723967 17.9504734
58.1379682 -51.0768220 17.5360627
58.0264665 -55.5676073 20.6827410
58.0277108 -56.2734865 21.7695702
58.0523647 -55.9807792 21.1731661
57.7261858 -55.9147596 22.4457607
58.1006110 -53.4040891 18.5924899
58.2400486 -51.6373329 17.5675042
58.0886118 -55.1563837 20.0207885
58.1633970 -54.8165962 19.5056461
58.2703017 -49.6642962 17.1381421
58.2363829 -48.9189476 17.1302222
58.2160242 -52.5639690 17.9494359
58.5138313 -53.3798672 17.9198813
58.4185347 -54.1808680 18.5440257
58.2524240 -56.4515255 21.1977493
58.3786890 -56.9670796 21.6111857
58.1281781 -56.8727963 22.5336552
58.2941025 -56.1751537 20.6462070
58.3488643 -55.8058284 20.0295690
58.4778115 -50.9140268 17.1113424
58.5898496 -50.3167696 16.8920085
58.4247969 -52.2022955 17.5221562
58.4735312 -55.4134026 19.3436034
58.3705418 -54.7701269 19.0350134
58.6063787 -52.7651869 17.4959488
58.4401973 -51.3651371 17.2538087
58.6430840 -49.2148995 16.7635232
58.6316139 -48.5879481 16.7877227
58.2588166 -48.3034514 17.1386991
58.7223098 -49.7727953 16.7031214
58.5650690 -56.8673350 20.7699053
58.5663132 -56.4106219 20.1236289
58.6342923 -51.8052727 17.1321277
58.6759523 -56.1455190 19.5401497
58.8181578 -57.7274635 21.2673862
58.5583225 -57.6138534 22.0765658
58.8563941 -52.4283834 17.0309916
58.7157197 -51.3691455 16.9248525
58.7533116 -55.1600344 18.5795389
58.7769113 -54.1366152 17.8978182
58.8818379 -54.6972491 18.0422086
58.8952452 -50.9386472 16.6350156
58.9408502 -56.0270734 18.8537203
59.0527356 -53.2325059 17.0469787
59.0432175 -53.9629348 17.3826031
59.0235479 -49.4641811 16.3851716
58.9826144 -48.8787107 16.4403524
58.7724820 -56.9043793 20.1468468
58.9445531 -57.4780218 20.4305742
59.0871945 -50.2009168 16.3372420
58.7977469 -56.6421561 19.7450053
58.9681230 -58.4368445 21.9664965
58.5669428 -58.0747910 22.9980443
59.0843372 -55.2500822 18.0247854
59.1542535 -55.7625368 18.2340797
58.9922182 -56.6448085 19.2751996
59.1359101 -51.8006869 16.4920148
59.3125708 -52.7023003 16.4829642
59.0486936 -57.1915694 19.7269861
59.0602644 -54.4692688 17.6097713
59.2413805 -54.9788065 17.5936893
59.3820438 -50.9807691 16.0461403
59.2623167 -58.3226494 20.6821449
59.1255054 -58.4107414 21.3105269
59.3084991 -56.7735881 18.6968409
59.3073443 -56.3209131 18.3354281
59.2700765 -57.8910969 19.9888889
59.2972524 -49.0888543 16.1093920
59.4274662 -49.6119037 15.9461014
59.4970323 -59.1466017 21.3085078
59.2919290 -59.2091605 22.1757852
59.0089187 -58.8810779 22.6526819
59.3330562 -48.5492274 16.1146596
58.9809231 -48.3594686 16.4751187
59.2723787 -57.1773946 19.1431493
59.5967881 -50.2790958 15.7353934
