# 3D Systems, Inc.
# New Model
-20.9924672 -91.7066261 981.3922048
-20.7306165 -91.9401050 981.7951322
-20.6319895 -90.6454846 980.8127880
-20.8151974 -91.2399292 981.1376929
-20.4646159 -91.4694294 981.5497398
-20.6087716 -88.3252546 979.1260958
-21.5182696 -88.2935897 978.7666202
-21.0430641 -88.2035196 978.8786769
-20.4711426 -92.2378078 982.3048115
-20.4744358 -89.8294747 980.3368449
-20.4992313 -90.2085230 980.5873036
-20.5158722 -92.6355571 982.8475118
-20.6733458 -92.9715931 983.3304286
-20.2923939 -90.9991711 981.2737703
-20.0768970 -91.6747972 981.9619656
-20.1601125 -88.9575332 979.8101187
-19.8893230 -88.4207785 979.4028401
-19.9449528 -89.3889889 980.2201390
-20.0189780 -90.1586190 980.7594419
-20.1861635 -90.6440020 981.0553193
-20.0315025 -92.3176408 982.8258157
-20.1913416 -92.6932245 983.4148288
-19.8900066 -91.9638127 982.4243784
-19.9119076 -91.1577567 981.5847874
-19.8502447 -90.6786248 981.2313318
-19.7276082 -88.8791159 979.8900485
-19.4350109 -91.6101709 982.3480248
-19.3551779 -91.1827311 981.9025397
-19.6114592 -92.0517147 982.7784300
-19.5451472 -92.2808275 983.3375216
-29.4579398 -80.4630518 974.1506577
-29.5125898 -80.1005885 974.4542241
-29.6261963 -83.1236094 981.3936353
-29.6249352 -82.1726620 980.7664156
-29.3223821 -82.6401114 981.0925126
-29.3382555 -79.1116953 975.0754237
-29.3000173 -79.7006786 974.7485518
-29.7204480 -83.5300684 981.7206860
-29.5348708 -81.3051015 980.4447889
-29.4485837 -80.7533711 980.3323746
-29.4671990 -84.0246901 982.3096395
-29.6186507 -83.7287754 981.9507003
-29.6815485 -81.7064345 980.5455208
-29.3222181 -79.9994022 980.0946116
-29.3860231 -84.6145377 982.9014540
-29.4993483 -84.9643499 983.1952453
-29.6359435 -78.7632316 979.8570871
-29.4591803 -78.3503577 979.6156883
-29.5986552 -79.2576447 979.9667001
-29.3102004 -84.3310952 982.6849103
-29.1630402 -78.5676837 975.4400253
-29.4597037 -78.2405734 975.7000804
-28.8434457 -80.9020177 974.0856886
-29.4124912 -78.8264424 979.8468947
-29.1125458 -79.3712810 979.8838496
-29.1358624 -87.5427201 982.9108715
-28.8623553 -87.8431797 982.5394750
-28.9464425 -87.2087628 983.1141829
-29.4716489 -86.9081989 983.4320545
-29.1661322 -81.8127096 980.6302190
-29.5098554 -78.6547586 979.8390865
-28.9189909 -78.8535029 979.5737267
-28.7424885 -80.1710337 974.6762514
-28.7824702 -81.3248605 980.3965688
-28.8577769 -80.7053149 980.1696539
-28.8144592 -82.9934403 981.4477563
-29.1835405 -83.4930465 981.8838239
-29.0407781 -82.2761431 980.8808565
-28.6707394 -82.6358199 981.1285734
-28.9210323 -84.6041664 982.8136563
-28.8233031 -84.3348131 982.6437831
-28.9642997 -85.0622877 983.0992222
-28.7184361 -83.8903263 982.3415875
-28.8578887 -79.7154531 979.8717499
-28.6421292 -80.1970288 979.8457026
-28.8609322 -79.4428736 974.9662876
-28.6940150 -78.9842010 975.2922058
-28.7322458 -83.5238472 982.0272326
-28.7322290 -83.3242536 981.8369746
-28.7118778 -78.5820186 975.5963087
-28.9791301 -78.2167166 975.7928848
-28.7997648 -87.5103772 982.8506112
-28.8464483 -79.3880448 979.7611833
-28.5032634 -84.8017558 982.7747941
-28.5251979 -85.4922086 983.0524325
-29.0645845 -85.5852365 983.3695889
-29.4661354 -85.2598995 983.4131002
-28.5838433 -79.5157552 979.5740247
-28.2610543 -78.9403692 978.8200259
-28.7892502 -78.3197209 979.2266488
-28.4059979 -87.4123126 982.5994372
-28.5087060 -86.8831128 983.0379486
-28.9455056 -86.6772756 983.3456874
-28.3931103 -79.5012638 975.1803875
-28.2622240 -80.9246749 979.9246788
-28.3952896 -84.3001157 982.5412035
-28.3952430 -83.4569186 981.8926454
-28.2499380 -84.0231031 982.2435975
-28.4402315 -82.0662454 980.7087779
-28.1211697 -81.5372840 980.2048802
-28.0899666 -83.0567330 981.1968803
-28.1519555 -82.6219097 980.9917212
-28.0994158 -81.1540708 974.7264385
-28.4164567 -81.4929828 973.9638567
-27.9633496 -80.1960975 975.4046798
-28.4146257 -78.8835809 975.6306410
-28.5596456 -78.4200728 976.0009050
-28.3524115 -79.1207701 975.3792882
-28.0686375 -80.2650303 979.3161750
-27.8836209 -82.1308196 974.2131829
-28.2321721 -78.8776875 976.0225415
-28.3187348 -78.3827677 976.3908982
-28.8183857 -77.8936073 976.1830568
-28.5971053 -78.0250579 976.4658213
-28.3770226 -85.0407928 982.7387929
-28.0633010 -85.3957087 982.7713370
-28.2128677 -86.8119523 982.7762842
-28.3243582 -86.3933042 983.0116630
-28.1623527 -79.3219954 975.5787253
-28.3448435 -86.0059410 983.0998778
-28.8948435 -86.1258432 983.3361506
-28.0422978 -81.9774792 980.4315567
-27.9511530 -82.3043510 980.5632830
-28.0658156 -86.9965777 982.4592471
-28.0249305 -87.3493850 982.1900129
-28.0963518 -87.7453685 982.0720553
-28.1534716 -84.5148042 982.3415875
-27.9118232 -84.1263756 981.7786217
-27.6971217 -84.4688714 981.7536473
-28.1321760 -86.0470012 982.9807281
-27.9217996 -86.5274742 982.4752212
-27.8322659 -85.9646797 982.5367332
-27.8509781 -79.5292407 976.1605859
-28.0538294 -78.7559524 976.5333533
-27.8497431 -81.4404190 979.9060822
-27.7614184 -81.1971724 979.5126319
-28.0520674 -83.6033300 981.6926122
-28.0751772 -78.5832182 978.0214429
-27.7645253 -79.3604255 977.7898788
-28.4160916 -78.0691281 978.2367349
-27.6923571 -80.1777989 978.4356952
-28.6939088 -78.0650899 978.8177013
-27.7843215 -83.4728181 981.1832309
-27.6807472 -83.8707983 981.2725782
-27.7556796 -86.8826658 982.0424914
-27.6859924 -87.5839517 981.7258716
-27.7024135 -85.1263106 982.4285507
-27.7816188 -85.4752362 982.5645685
-27.7573243 -82.7118307 980.6323051
-27.6576113 -83.4930316 980.8343053
-27.5910087 -83.2818002 980.4950356
-27.7165845 -82.0072144 980.0165892
-27.5653359 -82.4523419 979.9850583
-27.9308278 -78.6365569 977.4742126
-28.1591117 -78.2223642 977.6875377
-27.5599565 -81.0983554 978.8164496
-27.9782675 -78.5794407 977.0164490
-27.7932454 -79.1052133 976.9655466
-28.1718057 -78.3758312 976.6830802
-27.5788475 -82.0816979 975.1421213
-27.5419112 -82.7891156 974.1421342
-27.4873190 -82.6525912 974.6448994
-27.5962371 -81.2651813 975.6890535
-27.4079293 -83.0675364 973.9228487
-28.0367527 -78.3127621 977.2903919
-28.1097572 -78.2938600 976.9502878
-27.4913665 -86.2151682 981.7715287
-27.5750719 -80.5049017 976.1019945
-27.5706090 -81.8293914 979.6736836
-27.5287684 -80.1650211 976.9725204
-27.6060738 -85.4517370 982.2272062
-27.5279116 -84.9382505 981.9300175
-27.7171414 -84.7821012 982.2596908
-27.6654642 -84.2421353 981.4134836
-27.5557395 -85.7856497 982.0591211
-27.4376031 -81.8760395 979.1805148
-27.5263973 -80.2462026 977.7508378
-27.4162497 -84.5710933 981.1031818
-27.5246315 -83.8179886 980.9147120
-27.4138656 -86.9120061 981.5158844
-27.2131991 -87.4659270 981.1605811
-27.2002220 -83.2674205 974.3882418
-27.3858365 -81.1670199 977.6837826
-27.3831822 -84.0509906 980.4842472
-27.5042225 -82.9364508 980.0624251
-27.4368580 -82.2316334 979.5634747
-27.1694791 -84.1582939 979.5728326
-27.3423586 -82.7208832 979.2770743
-27.4323672 -85.4430944 981.6724062
-27.3859035 -81.2599584 976.5933752
-27.2832178 -82.1882114 978.2502651
-27.1763243 -85.6323019 980.8083177
-26.9939154 -86.7587030 980.7384610
-27.2868518 -82.3315009 976.2583971
-27.2333883 -82.9839408 975.3034711
-27.2665266 -81.8946138 977.0215154
-27.1925647 -84.8137066 980.3441763
-27.2492561 -81.9818079 977.5068164
-27.1483175 -83.3110139 978.5020947
-27.1995645 -82.4957490 977.2760868
-27.1494482 -82.9256997 977.8255820
-26.9870255 -83.5948884 976.2370586
-26.8574059 -83.9593858 975.1268029
-27.1110274 -83.0270499 976.8443108
-27.0959418 -83.1183493 977.3599505
-27.0286668 -83.5796148 977.7743220
-27.0174332 -85.3303447 980.0239801
-26.9339886 -84.2873603 978.3388376
-26.9058459 -87.4994248 980.7335734
-26.9898456 -83.6117938 977.1025777
-26.8421378 -86.1460418 980.0665975
-26.7794430 -85.6333598 979.4042706
-26.7875995 -85.1143822 978.7601829
-26.8562194 -84.2459947 977.5057435
-26.8571638 -84.1211230 976.8756628
-26.7145988 -87.3522609 980.4170132
-26.7037340 -86.6742432 980.0583720
-26.5860166 -87.0743170 980.0543785
-26.8115103 -84.2273012 975.8940935
-26.7430730 -84.4684988 976.4236212
-26.6223364 -85.1588249 977.8098464
-26.5822206 -84.8240256 975.7174850
-26.3910387 -84.7028792 974.5003581
-26.7055482 -84.6765414 977.0736694
-26.4460649 -86.0748813 978.5584807
-26.4709648 -86.6654515 979.4330001
-26.4334641 -85.3178203 976.7372608
-26.4865309 -87.5614285 980.1064730
-26.2914095 -87.4028280 979.6524048
-26.1967853 -85.6030136 976.0226011
-26.2979586 -85.2751359 975.3297567
-26.2068193 -86.1152783 977.5875807
-26.2143780 -86.7901444 978.7335396
-26.1161570 -86.6654664 978.1779051
-25.9262118 -86.2056985 976.7463207
-26.1007119 -87.2396082 979.0590405
-25.9823371 -85.3244588 974.6151567
-25.9706620 -84.9731266 973.9643335
-25.9630028 -85.6879577 975.3630161
-26.0243528 -87.7373517 979.3903828
-26.0176063 -88.0740434 979.6255827
-25.9738844 -87.1288553 978.5063267
-25.9169806 -86.7282897 977.7142406
-25.9596594 -86.4652470 977.3690701
-25.8160550 -86.0591233 975.9490490
-25.8536451 -87.0514661 978.0651927
-25.7635321 -87.6383558 978.7719846
-25.6549567 -87.4286592 978.2201648
-25.7810224 -88.0823731 979.2643189
-25.6472733 -85.3853747 974.1126895
-25.4792906 -85.8288184 974.6785760
-25.7098190 -85.9337971 975.3540754
-25.6648045 -86.8103132 977.2297144
-25.4403893 -87.3000398 977.6282310
-25.2802931 -86.2468928 975.3664136
-25.5575124 -86.6981372 976.7360687
-25.3435019 -86.6804942 976.3445854
-25.3991261 -88.1427228 978.7498713
-25.2143014 -87.0944858 976.8649340
-25.3583770 -87.2094855 977.2555232
-25.4071523 -87.8415406 978.3531427
-25.2482612 -87.6870453 977.9388905
-25.2098944 -85.6741592 973.9766717
-25.0858832 -88.1694183 978.3516526
-25.0697266 -87.9979134 978.1138897
-24.7306153 -87.6459554 977.4176478
-25.0864923 -87.3735249 977.1744013
-24.6640835 -87.9961252 977.8572917
-25.4286267 -86.4651874 975.9621024
-25.1018368 -86.6368413 975.9162664
-24.6356241 -87.1155486 976.5729904
-24.7516893 -86.8111998 976.0810733
-25.2144653 -86.0384032 974.6851325
-24.7271527 -86.1642212 974.6147394
-25.0690281 -85.9524235 974.3294716
-24.6799495 -86.6305083 975.7032990
-24.5621689 -86.4304006 975.2741456
-24.7295815 -85.9787539 974.0698934
-24.6751122 -85.8836547 973.7827778
-24.6582981 -87.3958617 976.9850969
-24.7311778 -88.2185847 978.1258702
-24.0106843 -87.9198089 977.6108861
-24.0557082 -85.9638378 973.5916853
-24.0645353 -86.8777111 976.0678411
-24.1707247 -86.6471156 975.6063819
-24.0393877 -87.3438492 976.8713713
-24.0371581 -87.1567130 976.5786529
-24.0214281 -87.6141712 977.2306681
-24.0829028 -86.1110836 974.0740657
-24.0172427 -86.3284692 974.7866988
-23.9756498 -86.5356922 975.3280282
-23.3276915 -87.1150270 976.5822887
-23.4889630 -87.4693096 977.0644903
-23.7368699 -86.6901651 975.6431580
-23.4874245 -86.8024155 975.9070873
-23.4157424 -87.7465755 977.4215221
-23.3691782 -86.5678787 975.3693938
-23.3561620 -86.0815346 973.8559723
-23.2544392 -86.2848982 974.5345116
-23.4826691 -88.0372152 977.7511358
-23.0223499 -87.9554078 977.7349830
-22.9388885 -87.5369757 977.2830009
-23.1508352 -86.8000239 975.9949446
-22.7505490 -86.8809298 976.3852358
-22.5876272 -87.1831775 977.0043492
-22.7784887 -87.0338380 976.6790271
-22.7173977 -86.0030204 973.6402035
-22.6792470 -86.6583660 975.8489728
-22.6435512 -86.4512175 975.1909971
-22.6907935 -86.1685723 974.1671681
-22.5519184 -86.3013491 974.6654034
-22.5180518 -87.8107771 977.8162241
-22.3779678 -87.4638036 977.4995446
-22.0745597 -86.0690549 973.9630222
-22.1535359 -86.2104297 974.4463563
-21.9504721 -87.9786909 978.2794714
-22.4593915 -86.9552791 976.6998291
-22.1170112 -86.7681950 976.4482379
-22.1549533 -86.9880542 976.9171476
-22.0704433 -87.2027129 977.3061872
-21.9546184 -86.5013450 975.7463932
-21.9398141 -86.3159671 975.0139117
-22.0185220 -87.5990242 977.8476357
-22.0373496 -87.3944536 977.5979519
-21.5530694 -86.1314982 974.4698405
-21.4467309 -87.5977427 978.0748487
-21.2261491 -87.9069939 978.5096049
-21.6406342 -87.2953013 977.6111841
-21.6478501 -86.9456753 977.0419002
-21.3175006 -86.6213143 976.4292240
-21.5154942 -86.3499418 975.4794240
-21.4524828 -86.4313319 975.8389592
-21.2085694 -86.1990899 975.0683904
-21.1484302 -87.0456696 977.4256945
-21.1952981 -86.8445486 977.0234823
-21.1122856 -87.3122364 977.8380394
-20.7558107 -85.9654248 974.4238853
-20.9924243 -86.3408148 975.7415056
-20.6856467 -87.5209421 978.2623649
-20.6851568 -87.9205912 978.7294269
-20.6934903 -86.8227482 977.1232605
-20.6488948 -87.1407688 977.7332544
-20.5117669 -86.5181759 976.4142632
-20.5345768 -86.0959962 975.1706123
-20.2894676 -86.2594470 975.7903218
-20.2951357 -87.7057761 978.6161780
-20.2095173 -88.0005732 978.9356589
-20.0953390 -87.2415677 978.0456424
-20.0380702 -87.4948427 978.4150124
-19.9880730 -85.8383849 974.6236801
-20.2007163 -86.9765058 977.5785804
-19.8426880 -86.7204517 977.0741463
-19.8763367 -86.3954201 976.2855172
-19.8984966 -86.0404968 975.3168225
-19.7883863 -86.2018242 975.8094549
-19.8630542 -87.7347067 978.7174463
-19.8512468 -88.0138054 979.0120721
-19.7580159 -87.0410576 977.7666330
-19.3956643 -87.3885080 978.3161283
-19.2430429 -85.5263993 974.1088748
-29.6407752 -77.8423175 979.3112278
-29.5779519 -77.5771514 978.9796472
-29.4721741 -77.2785246 977.7181745
-29.5123570 -77.4811730 976.6222239
-29.5371246 -77.3099884 977.1393538
-29.3586534 -77.8608173 976.1138558
-29.0956944 -77.6175931 978.7067175
-29.0450063 -77.4228051 978.0067205
-29.1388724 -77.9018700 979.1676998
-29.1327499 -77.4045885 976.9017696
-29.1440655 -77.3570016 977.3173332
-29.0193986 -77.5743052 976.4732718
-29.0903524 -77.3393363 977.5616527
-28.9404057 -77.4515495 977.1218300
-28.9900135 -77.3687959 977.3513079
-28.9140008 -77.5340274 976.7835140
-28.7632346 -77.6860192 978.2763124
-28.7482776 -77.8234228 978.5338640
-28.7925731 -77.4869472 977.4541855
-28.5812058 -77.7065977 977.8091311
-28.8252737 -77.7351111 976.5608907
-28.6304895 -77.7247325 976.9716859
-28.5058971 -77.7230710 977.4116278
-28.3285622 -78.1033412 976.7709970
-28.2845367 -77.9993162 977.2891998
-28.4066815 -77.8258145 977.5537252
-28.3566490 -77.9518411 977.7220488
-27.7452786 74.8404339 973.5520482
-27.5818929 74.5637715 973.5616446
-27.9023834 75.2681866 973.6393690
-27.4746865 74.9345347 973.6336470
-27.1970332 74.4042471 973.6334085
-26.8255994 74.0427598 973.6987352
-27.1105785 75.1408711 973.9332199
-26.9218292 74.6228620 973.8647938
-27.4227597 75.5790100 973.9227295
-26.6507342 74.9696940 974.1676450
-26.8360544 75.5868480 974.3155837
-26.3969023 74.3868276 974.0511179
-26.5783817 73.5959783 973.5755920
-26.3489354 73.8857314 973.8429189
-26.2493696 74.8272389 974.3055105
-26.2810141 75.3405616 974.5028019
-26.0842666 73.5542476 973.7483263
-25.9109456 73.9916712 974.0339518
-25.8685835 74.5204166 974.2937088
-25.9204488 74.9765113 974.4790196
-25.5047791 73.5803843 973.8936424
-25.2541192 74.1635412 974.2582440
-25.3901966 74.8562142 974.5766521
-25.7241204 75.3591284 974.7186899
-24.7291103 73.6013502 974.0403295
-24.4451743 73.0008557 973.7110138
-24.6721506 74.5629743 974.5986462
-24.6929079 74.0879849 974.3224382
-24.9044765 75.1853362 974.8945236
-25.3340919 75.2412826 974.7914076
-24.1168495 74.0277693 974.3904471
-24.4073644 74.9918073 974.9215841
-23.9119846 74.6531561 974.8144746
-23.8785893 73.3762532 974.0221500
-24.0055211 75.2338096 975.1649499
-24.4813617 75.3421634 975.1217365
-23.8597505 72.8816018 973.7079144
-23.4288406 74.1907060 974.6016264
-23.5035829 73.7625584 974.3182063
-23.4007128 75.0368759 975.1234651
-23.4383959 75.5030885 975.3459096
-24.2858194 75.5655542 975.2961993
-23.9527710 75.6910518 975.4027128
-23.7366408 74.8303905 982.5401902
-23.9993539 74.7655928 983.1162691
-23.5745274 74.4168684 982.7961326
-24.1951793 75.1640201 982.9425812
-23.8243919 74.3034482 983.4207892
-24.3474059 75.0754327 983.3415747
-24.2945943 74.8567283 983.5429788
-23.2788604 74.6113285 974.8840332
-23.2736524 72.9768872 973.8264680
-23.2375786 73.4221786 974.1352201
-23.3486518 74.3822306 982.4187756
-23.6730222 75.1369819 982.0172787
-23.3109239 74.6629909 981.9710255
-24.0260661 75.2885640 982.4687243
-23.3619083 74.2559358 982.6170206
-23.1502689 73.9676133 982.6193452
-23.2727826 74.9632567 981.5057516
-23.6104764 75.3735527 981.5927148
-24.0892172 75.7114664 982.0402265
-22.8621941 73.8080218 974.4378924
-22.9298994 74.1530433 981.9359183
-22.6850193 74.9002323 975.1167893
-22.9228437 75.3817111 975.3264189
-22.9037106 74.5089352 981.4155698
-22.8931569 74.3352920 974.7630954
-22.6917397 73.2170269 974.0595818
-22.8277519 72.8815570 973.8000631
-22.9005981 74.8404413 980.9794426
-23.3092010 75.3201991 981.1052680
-22.6785261 73.6895427 982.0854664
-22.6810798 73.4283254 982.4733138
-22.7824058 73.1114745 983.1748605
-22.5428548 74.0567371 981.3204408
-22.5638207 73.7996995 981.7047715
-22.9573417 75.2464533 980.5502892
-22.5896984 74.7676566 980.4977775
-22.5482862 75.1126558 979.9550176
-23.0965409 75.8479238 979.9973369
-23.4783404 75.8851171 980.6730747
-22.5265305 74.4149163 980.8283448
-22.2040452 74.2103457 974.7893810
-22.1397933 73.5730529 974.3988514
-22.4628579 72.7953240 973.7612605
-22.0828541 73.0907694 974.0419388
-21.9861772 74.7473016 975.1766920
-22.1425034 75.1935914 975.5069017
-22.4528667 75.4562318 975.5093455
-22.2945735 73.2286200 981.9667339
-22.4927776 73.1486380 982.5016856
-22.4408954 73.5630542 981.7880988
-22.2214181 73.5364035 981.3803434
-22.1283566 73.9310458 980.6657434
-22.2085230 74.4690374 980.1425338
-22.0398735 74.7410953 979.4279933
-22.3548170 75.2418712 979.3989062
-22.7157902 75.6764263 979.5122147
-22.0766850 73.2036233 981.5464020
-21.8651257 73.4112039 980.8083177
-21.8512211 73.0965808 981.2188745
-22.2077146 72.8336275 982.3712707
-22.0187064 72.7309957 973.7478495
-21.9072569 72.7070272 981.9167256
-21.9347998 72.9548633 981.6039801
-21.8949765 74.0564615 980.0268412
-21.8703020 74.3230283 979.6353579
-21.5841010 74.3167177 975.0400782
-21.7398703 74.9334693 975.4728079
-21.4408301 74.6382773 975.4413366
-21.5565898 71.9799623 982.2751284
-21.6550324 73.5540539 980.1638722
-21.5291083 73.8298744 974.7461081
-21.5569306 73.3055621 974.3193388
-21.6710456 72.9188696 973.9523530
-21.6239747 72.5341216 973.6084342
-22.0355261 75.0755593 978.9496064
-21.6780547 74.5990425 978.8073301
-21.6907375 74.8946443 978.4137607
-22.0661405 75.3636435 978.5441160
-22.3957766 75.5261630 979.0739417
-21.6298420 74.2677227 979.1611433
-21.5384085 72.5411177 981.3513756
-21.6156486 73.9357322 979.5767665
-21.4633811 72.9314461 980.6008935
-21.7497163 75.1777589 978.0730009
-21.4171447 74.7773349 977.8928161
-21.6442589 75.1997828 977.6124358
-22.2600494 75.7281780 977.9672623
-21.3591009 74.4171068 978.2674313
-21.3275030 74.1000101 978.6468744
-21.3651508 73.4890997 979.5935750
-21.2646052 73.6980811 979.0617228
-21.6768049 75.0780180 975.9278297
-21.5195939 74.8727322 975.6380916
-21.0034382 71.8477443 981.2020063
-21.0440028 72.2694546 980.6196690
-21.3515610 74.8205408 975.9010077
-21.2409943 74.8340264 976.6002297
-21.7942037 75.2914920 976.5540361
-22.0692940 75.4063651 975.9978056
-21.2291125 73.0471611 979.8899293
-20.3916617 70.8963871 981.3435078
-21.0502818 72.5924745 980.1328778
-21.0819282 74.0898326 975.2335548
-20.9798422 74.4099915 975.9337902
-20.8903011 73.4640658 974.7429490
-21.1243797 72.8830099 974.0214348
-21.5399675 75.1580968 977.1207571
-21.2727766 74.7952089 977.3849845
-22.0921040 75.6086931 977.1086574
-21.0633334 74.2709041 977.6669145
-21.0284106 73.9176273 978.1135917
-21.0454296 73.1382668 979.3145061
-20.9761560 73.5809505 978.4806967
-21.0193824 74.4610652 977.1434665
-20.8784863 73.1920004 978.8054228
-20.8922420 74.3799657 976.7390490
-20.9183488 74.4622052 976.4161706
-20.7831934 72.5583211 979.5210958
-20.4748530 71.5485066 980.3932905
-20.7240637 72.1517876 980.0156355
-20.7300186 73.7353116 977.5440097
-20.6918325 73.4285340 977.9306650
-20.7450651 72.8137046 979.0288210
-20.7435694 74.0027502 977.0759940
-20.6433795 73.0962306 978.3192277
-20.5520596 72.5694746 973.7977982
-20.6760000 73.9641711 975.5765796
-20.6433497 74.0567446 975.9314060
-20.6330791 74.0260258 976.3734341
-20.5240585 72.9679465 974.3230343
-20.5960050 72.8067756 978.6416292
-20.4210933 72.3748878 978.8538218
-20.7339209 73.7945661 975.2144217
-20.3967169 73.4942406 975.2967954
-20.3917194 73.7026110 975.8399129
-20.2598162 71.7877597 979.3919325
-19.9187733 70.7585514 980.3721905
-19.9672468 71.1245164 979.7731042
-20.3104895 73.1142536 974.7918248
-20.0326648 72.6461112 974.1556048
-20.1900396 72.9171485 974.4673371
-20.5505844 73.6391172 977.1612883
-20.4396024 73.6137331 976.7924547
-20.3444529 73.2221305 977.2406816
-20.4276927 73.0044171 977.8589010
-20.2929396 72.5610927 978.1944156
-20.1185551 71.9352812 978.7408710
-20.1478992 72.1653253 978.4372449
-20.2389583 73.4502599 976.2675762
-19.2549545 69.7434619 980.6876183
-20.1775059 72.7082193 977.6158333
-19.9012998 71.5609193 978.7653089
-19.6787231 71.0489154 979.0456295
-20.2362258 73.3158514 976.6910076
-20.0465899 72.1685290 978.1447053
-19.8852196 72.1689537 977.6753187
-19.9816786 72.9315057 976.5249491
-19.8582225 71.7901811 978.2398939
-19.9405961 72.5843534 977.1109223
-20.1732069 73.4024718 975.8793116
-19.9574884 73.0574951 975.8548737
-20.1668441 73.3453929 975.5808711
-20.1793648 73.2953921 975.3786922
-19.9890379 73.0286464 975.2639532
-19.4980949 70.4791173 979.6472788
-29.7665931 80.3407207 975.9189487
-29.8611373 79.9638107 975.2895832
-29.3418821 81.5094262 980.7454348
-29.5240507 81.4685524 981.5276861
-29.4618327 81.6123784 979.9013734
-29.5997132 80.7790011 976.7976999
-29.3869674 79.2690516 974.8854637
-29.1962866 78.8169205 974.6037722
-29.3968972 79.5846954 975.2158523
-29.3717347 80.3893507 976.3230681
-29.3904580 79.9146667 975.6411314
-29.5534376 81.3825354 981.9608331
-29.4076968 80.1650211 975.9771824
-29.2679537 81.0138062 982.5202227
-29.4545759 80.8485150 983.2209945
-29.8753716 81.0828730 983.3413959
-29.3372832 80.8040276 977.1291018
-29.3400176 80.9882209 977.5542617
-29.0968344 80.5128962 976.7692685
-29.2732213 81.2150910 981.9398522
-29.2379409 77.9522434 973.7748504
-29.0345717 81.2307224 981.3266397
-29.0242750 79.9506307 975.9936929
-29.1352849 81.0821503 977.9595137
-29.1766655 77.4436072 973.6518860
-28.9490037 81.3565850 979.2844057
-28.7086125 81.0715482 978.3712626
-28.8730115 81.2741071 978.7518382
-28.8910735 76.8614635 973.5829234
-28.9309938 79.5791522 975.6009579
-28.6871679 80.0761431 976.4243364
-28.9628655 79.3413073 975.2613306
-28.6541730 78.1943649 974.5198488
-28.8835596 77.9264867 974.0582705
-28.7157316 81.2285244 980.0981879
-28.9669558 80.7250142 977.3303270
-28.9052855 79.0682361 975.0222564
-28.7667941 81.1852366 980.7808995
-28.6378060 78.6683112 974.9339223
-28.7959091 80.9131935 981.8907976
-28.8683306 80.6605145 982.6899171
-28.8173426 77.5149465 973.8507271
-28.7847333 77.1661475 973.7743735
-28.6831465 80.8182657 977.8080583
-28.6762584 80.3766549 976.8924713
-28.5998452 80.9852630 981.2144041
-28.4371972 80.4797262 977.3389697
-28.5271630 76.2613639 973.6257792
-28.5149422 81.1167806 978.9019823
-28.4517687 81.1077654 979.4517159
-28.5444763 76.7903253 973.8605618
-28.5002291 79.5512199 975.9461284
-28.5863597 79.1184232 975.3960371
-28.4961034 77.6857659 974.2517471
-28.3188634 77.1543384 974.1199017
-28.4196939 80.5561468 982.1375012
-28.4738261 80.3620592 982.6687574
-28.7366211 80.3798810 983.0743670
-29.0466398 80.4785267 983.3642840
-28.2886848 80.6781426 981.5148115
-28.1980950 75.7186636 973.7054110
-28.0439369 80.5559680 978.0363441
-28.0807167 80.8183253 978.6965847
-28.2365382 80.8368400 980.7609320
-28.1772986 78.3048794 975.0386477
-28.3204112 77.8418109 974.5224714
-28.0176457 77.8116435 974.7825265
-28.0097593 80.8181614 979.9419641
-28.2801837 78.6649585 975.2689004
-28.0589648 78.9322183 975.7081270
-28.2738712 80.1115409 976.8270850
-28.0422904 79.6056837 976.3610959
-28.1487163 79.3397799 976.0137796
-28.2593891 76.6115561 974.0054607
-28.1274226 76.2114897 973.9362001
-28.1150043 80.9131041 979.2456031
-28.1580146 77.5629506 974.4641185
-28.1570014 80.2680030 982.3127985
-28.1307641 80.0277516 982.7231169
-28.4616891 80.0721124 983.1938148
-27.9455297 80.1761970 977.3148894
-27.9915482 80.3170279 981.8837047
-27.8189760 79.8500553 976.8670797
-27.9234350 76.6415223 974.2387533
-27.7864635 77.1475062 974.5771289
-27.8393645 80.4075971 981.3093543
-27.6829749 80.4825276 980.6536436
-27.7224369 79.9009874 982.2621346
-28.0832462 79.7389895 983.1470847
-27.7401023 79.5899481 982.8363061
-27.8426427 79.1347027 976.0489464
-27.7326927 75.7740363 973.8400578
-27.9437583 78.4661695 975.3894806
-27.5697075 78.4002766 975.6457806
-27.4096206 78.7525997 976.0507941
-27.6640411 76.1825666 974.1690159
-27.6234541 80.6140825 979.2978168
-27.5583584 80.4817602 978.6785841
-27.7460180 79.2514458 983.3893776
-28.2665603 79.6340853 983.6131334
-27.6965760 78.0486986 975.2503037
-27.4497047 79.4749558 976.6978025
-27.5277197 79.1640952 976.2970805
-27.4264943 80.0647885 977.7264595
-27.3585580 80.2624077 978.3127904
-27.4441075 80.4590210 979.9632430
-27.4288859 77.4095133 975.0488997
-27.5636874 80.0426751 981.6869497
-27.5985952 79.9234435 977.2331119
-27.4747051 76.5850171 974.5437503
-27.5193583 80.2040473 981.1843038
-27.4262484 79.7097459 977.0441651
-27.3240004 79.4070885 982.4690819
-27.3605417 79.1339949 982.9643965
-27.3289289 76.8866092 974.8473763
-27.4363887 75.9118870 974.1144180
-27.2430424 76.2197524 974.4408131
-27.1841828 79.6058252 981.8812609
-27.1705929 79.8741281 981.2725186
-27.2323005 79.7780082 977.3632288
-27.2489656 77.8905898 975.4981399
-27.3291972 80.2311450 980.6187153
-26.8149991 79.4139504 977.2247076
-27.2193700 80.3540647 979.2217016
-27.3007806 80.3532451 978.6781073
-26.9641597 76.6064674 974.8464227
-26.9991234 80.1450387 979.9098969
-26.7318562 79.7500163 980.6020856
-27.1506216 78.2824606 975.8643508
-26.7692693 78.4856081 976.2520790
-27.0477142 79.0520683 976.5968919
-27.1420237 75.9066790 974.2961526
-26.9794948 79.9687505 978.0955315
-26.8336330 79.7337964 977.7041674
-27.0414669 76.9924968 975.0772119
-26.9421861 77.3900822 975.3459692
-26.8461201 80.0414458 978.6744714
-27.0426031 79.0259317 982.6284051
-26.9330889 78.6664709 982.9940200
-27.3181703 78.8451657 983.3357334
-26.8710628 79.1500658 982.1490049
-26.7855413 80.0553188 979.3553352
-26.8358532 77.9082924 975.7202864
-26.8094670 76.1522651 974.6233225
-26.5642833 79.2387128 981.4350009
-26.5363585 76.9679621 975.2321243
-26.5370496 77.4830580 975.5026102
-26.6253985 78.7059292 982.4467897
-26.5558567 79.7402561 978.1160355
-26.3999123 78.2651380 982.7345610
-26.6396422 78.1686306 983.2364321
-27.0704180 78.4425065 983.5209846
-26.7534927 79.0961757 976.8788218
-26.6769491 78.8965374 976.6897559
-26.4170952 78.7922218 981.9667339
-26.4001898 76.4632672 974.9858379
-26.4949556 79.7628686 979.8857570
-26.3849385 79.7576383 979.2827368
-26.2234192 79.6197131 978.6412716
-26.1980221 79.4293731 977.9542089
-26.1983052 78.9358765 977.0827889
-26.1085071 79.1522861 977.4978757
-26.5254099 78.0158341 975.8904576
-26.5922341 77.8210461 975.6570458
-26.2477044 78.6580443 976.6939878
-26.3755396 75.9389997 974.7259021
-26.1046123 78.2603845 976.3773680
-26.2561683 79.2429298 980.8357358
-26.1886790 79.3813691 980.3203344
-26.2565333 77.6960552 975.7429957
-26.1511356 77.8910145 975.9897590
-26.0640103 78.2752633 982.1743369
-26.0362439 77.2612169 975.5651951
-26.0224901 78.5890892 981.6136360
-25.9845927 78.8285658 981.1292291
-26.0105487 75.7413581 974.7895598
-25.9176120 76.7657980 975.3389955
-26.0085892 79.3864802 979.6932340
-25.8588158 76.2170628 975.0738740
-26.2095332 77.8643414 982.9855561
-25.9654503 77.8636187 982.6050997
-26.0045435 79.4591978 979.1672826
-25.8545876 78.9493546 980.6149602
-25.6945025 79.2098120 978.6122441
-25.8266497 77.7092651 976.0370851
-25.6360546 79.0652335 978.0251980
-25.7382654 79.0360644 980.0908566
-25.6991051 78.9132938 977.5248766
-25.6189592 78.5109401 976.9505858
-25.6911311 78.7781030 977.3041606
-25.9906817 77.4748549 983.1295013
-25.9433780 77.6553899 982.8484058
-26.3817739 77.7018070 983.4355116
-25.5655386 79.0749937 979.0925384
-25.5477000 78.0880824 976.4972329
-25.6476384 75.7976770 974.9539495
-25.5496446 78.0475661 981.6504717
-25.6055687 77.7067542 982.2281003
-25.4193731 78.8756683 979.5544147
-25.6885570 78.4227028 981.3014865
-25.5892649 78.5444751 980.8837175
-25.4396144 77.1470591 975.7956266
-25.6896485 77.4113238 982.7434421
-25.7004555 77.0431161 983.1855297
-26.0852240 77.1661326 983.6170673
-25.3349226 76.5736923 975.4734039
-25.2737515 75.5663216 974.9776721
-25.2594501 76.0486647 975.2234221
-25.5145952 77.6210427 976.1321545
-25.4917629 78.6925927 980.3311229
-25.3042541 77.1939829 982.3862910
-25.4090428 76.9641846 982.8250408
-25.4495088 78.8050517 979.9379110
-25.3292732 78.1548768 981.0858369
-25.4891906 78.7316039 977.4491787
-25.3541339 78.8330808 977.9157043
-25.1954962 78.2924816 980.5226326
-25.1472667 77.4544105 981.7965031
-25.0747334 77.7604580 981.2455177
-25.0332095 78.4140229 977.4509072
-25.1429435 78.1762823 976.8190384
-25.3063906 78.8979307 978.5540104
-25.2284165 77.6493251 976.2938619
-25.1791626 78.5241872 979.9228311
-25.1435414 78.7000731 979.0412188
-24.9122549 78.3848688 979.4701338
-24.7561764 76.8306479 975.8565426
-24.8875301 77.2849470 976.1485457
-24.9510985 78.5687640 978.1978726
-25.3538825 76.5977725 983.1548333
-24.9858927 76.6090453 982.5407267
-24.9302164 76.0527849 983.1058383
-25.6875455 76.6924545 983.5630655
-25.3568869 76.2961507 983.5116267
-24.9591935 78.5637870 978.7268639
-24.7559045 76.2555823 975.5092263
-24.9463189 77.9171884 980.7195067
-24.9912497 77.0100951 982.0874929
-24.8769354 77.9075176 976.7804742
-24.9487814 77.5698125 976.4087200
-24.7347243 75.7120624 975.2374291
-24.8414390 78.0779421 980.1155329
-24.7626659 77.3498565 981.2453389
-24.7478187 77.0241767 981.6412926
-24.7155875 78.2489553 979.1709185
-24.9231495 78.1806260 977.0666361
-24.7360598 76.7188594 981.9860458
-24.4988166 76.3095766 982.0443988
-24.5903935 76.0527551 982.5174212
-24.7535110 77.5908232 980.8750749
-24.5884862 77.6368082 980.4189801
-24.6365275 78.0560896 977.3680568
-24.5950278 78.2052130 977.9961705
-24.6388093 78.2592520 978.6129594
-24.5963335 77.5089115 976.5664935
-24.2857225 77.6440427 977.0015478
-24.2930725 77.0556182 976.2763381
-24.4658422 77.7779147 979.8018932
-24.3185442 77.8698102 978.9377451
-24.2073070 77.6658952 979.3559313
-24.1314434 76.3007030 975.7081270
-24.2997967 76.7923370 976.0330319
-24.4128723 76.9199282 981.1384678
-24.4638901 77.2722736 980.7512760
-24.4229529 76.5941367 981.5656543
-24.3436024 75.8894980 975.4398465
-24.2935196 77.8946653 977.9697061
-24.2421255 77.7729750 977.4726629
-24.3296847 77.9477060 978.4907103
-24.4141873 75.6135434 982.7529192
-24.1017044 77.3417503 976.7525792
-24.2212880 77.2588328 980.2358747
-24.1137743 76.8514499 980.6203246
-24.1501257 76.1575773 981.5922976
-24.0098946 76.3779804 981.0487032
-23.9991173 77.2614852 979.7105193
-24.6121939 75.4721463 983.2898378
-24.0082331 77.5370747 978.4771204
-23.9034798 77.3910135 978.9888859
-23.9850897 77.5584430 977.8650403
-23.9166990 77.4916857 977.4212241
-23.8031223 76.7823532 980.0596833
-23.6365534 77.2092193 977.2181511
-23.6936659 76.9947022 976.6003489
-24.0350794 76.7802894 976.1485457
-23.5198289 76.6068250 976.1683941
-23.8392577 77.2455335 979.3174863
-23.5797856 75.8545026 975.4859209
-23.4065950 76.1287212 975.7407904
-23.7617847 75.7911652 981.3325405
-23.7838179 76.4428154 980.5072546
-23.6879252 77.2587657 977.9189825
-23.6159023 77.1011114 978.4957767
-23.6058366 76.8495351 979.5109034
-23.4687719 76.8803731 978.9627790
-23.5122088 76.2889609 980.1812768
-23.4185774 76.4411688 979.7804952
-23.3664028 76.9003853 977.8633118
-23.2621022 76.7165124 978.3539176
-23.1239684 76.3021782 979.3590307
-23.3510882 76.9459829 976.8280983
-23.1884979 76.8203661 977.2485495
-22.8883456 75.7851228 975.6019115
-23.3711284 76.8717527 976.5633941
-22.9831766 76.2642324 976.1653543
-22.9476877 76.0757625 975.8949876
-22.9982380 76.5856653 976.6950607
-22.8787698 76.2627795 978.6213636
-22.9392312 76.4104575 977.7542353
-22.9468159 76.5078291 977.2041440
-22.7191802 75.9267807 979.1205525
-22.6504896 76.1729330 977.2129059
-22.6991381 76.0327503 976.0867357
-22.5856006 76.0585070 976.5595794
-22.4452913 75.7707581 978.7130356
-22.3374236 75.7311732 976.0032892
-22.1986268 75.6187662 976.4540792
-22.2150814 75.4715726 975.7164121
-19.5408985 -91.8658376 982.5810790
-19.2249417 -89.5823017 980.5855751
-19.3708576 -89.0637040 980.1463485
-19.3335954 -90.2507827 981.0802341
-19.3514787 -90.7329991 981.4749360
-19.2291960 -88.6473507 979.8012376
-19.2279387 -91.8973759 982.8793406
-18.9328808 -91.2684798 982.3123813
-18.8919660 -91.5592909 982.7022552
-18.7110323 -90.7235667 981.7747474
-18.9284068 -91.0470188 982.0379019
-18.5485259 -91.7636156 983.2532406
-19.0147627 -92.0825228 983.4648371
-18.8347958 -90.3850719 981.3485742
-18.6197106 -89.9420083 981.0152650
-18.6756961 -88.9369547 980.1607728
-18.4545852 -89.4006789 980.5921316
-18.6541006 -91.0123810 982.2064638
-18.4133332 -91.2955031 982.6894999
-18.0881582 -90.7993615 982.2265506
-18.2152744 -90.2701914 981.4390540
-18.0400293 -90.4620811 981.7954302
-18.1646440 -89.6544009 980.8337688
-17.9596934 -89.9256170 981.1218381
-17.9555733 -89.0389904 980.3220034
-17.9614779 -88.6241868 979.9376130
-18.5726844 -88.4326845 979.6984792
-17.9268848 -89.3830061 980.6230068
-17.9678127 -91.1109447 982.6822877
-17.8666841 -91.3507193 983.1177592
-17.5275914 -90.4683024 981.9840193
-17.4676962 -90.8997133 982.6571345
-17.3078217 -90.6200260 982.2206497
-17.6017713 -89.6094516 980.8200598
-17.4965169 -90.1148766 981.5581441
-17.2937158 -89.8234844 981.1491966
-17.3461959 -89.2537236 980.5085659
-17.5008215 -88.8192505 980.1293612
-17.0724671 -90.9112990 983.4047556
-17.8900920 -91.4788395 983.9312434
-16.6640822 -89.4838125 980.7994962
-16.7781468 -90.2359784 981.9899797
-16.9175062 -89.9175853 981.4740419
-16.7166870 -90.5536190 982.6564789
-16.8467667 -89.7663757 981.2489748
-17.0590021 -88.7478665 980.0259471
-16.6210979 -89.2422274 980.5408120
-17.4800865 -88.5195136 979.8308611
-17.2499120 -88.2994384 979.5705676
-17.8914405 -88.1927311 979.4898629
-16.4458193 -88.6618569 979.9183607
-16.7357624 -88.3236378 979.5586467
-16.5955089 -89.8486674 981.4437628
-16.3037442 -89.9984911 981.9520116
-16.2154138 -90.1977718 982.5273752
-16.0753224 -89.5526931 981.3979268
-16.1961876 -89.2035961 980.7701707
-16.1474124 -89.1488418 980.7302952
-15.9499850 -88.8293535 980.2201986
-16.0138831 -89.2399251 980.7745218
-16.2834786 -90.3594494 983.1617475
-15.9305017 -89.8232535 982.2014570
-15.9142651 -90.0179297 982.8127027
-15.6971775 -89.3918276 981.2794328
-15.6233236 -89.4473866 981.7968607
-15.3928520 -88.9521763 980.7243347
-15.3666763 -88.6351913 980.1766872
-15.9196071 -88.5244831 979.8184037
-15.5020664 -88.5116160 979.9342752
-15.6073067 -89.5807743 982.6296568
-15.9063600 -89.9025276 983.4225178
-15.2459517 -89.0969783 981.4565778
-15.2492225 -89.1550109 982.1122289
-15.2822565 -89.1401544 982.8611016
-15.5496104 -89.3858075 983.4015369
-14.8578668 -88.8247564 981.1644554
-14.9536356 -88.7068287 980.5014729
-14.9498628 -88.7890011 982.4631214
-15.0400614 -88.6939168 983.0738306
-15.3252268 -88.9937952 983.3738804
-14.8767885 -88.8159275 981.8509817
-14.6502219 -88.3264616 982.6653600
-14.8105193 -88.2322937 983.3248258
-15.1761519 -88.6023492 983.6071730
-14.6339824 -88.4985998 982.0795655
-14.5093817 -88.4997249 980.7022810
-15.1016098 -88.4089619 979.9142480
-14.6363946 -88.3534923 979.9715877
-14.5514905 -88.5106325 981.4962149
-19.3368401 -85.8180374 974.9371409
-19.3774700 -86.0655531 975.5922556
-19.3165429 -86.4334628 976.5341878
-19.4689259 -86.2546712 976.0571122
-19.4411147 -87.9333168 978.9832830
-19.1263948 -88.2407650 979.3999195
-19.3280298 -86.9540423 977.6369333
-19.0323256 -86.6785422 977.1239758
-18.9809091 -86.1889720 976.0203958
-18.6494086 -86.9914442 977.7585864
-18.6261181 -85.6092349 974.6848941
-18.4070133 -85.3008926 974.0188122
-18.7653806 -85.9125108 975.3987789
-18.6655428 -86.3876864 976.5526652
-19.0096907 -87.7136290 978.7846208
-18.5989626 -87.4162316 978.4281254
-18.9798363 -87.9528522 979.0990353
-18.5803492 -88.0559683 979.2952538
-18.5857397 -87.7453238 978.9021015
-18.3539856 -86.6171643 977.1017432
-18.3636490 -85.1383209 973.6394286
-17.9530382 -85.7273936 975.1911163
-17.9597270 -85.4232460 974.5115042
-18.2904210 -86.0893130 975.9375453
-17.9737322 -86.3309205 976.5365720
-17.9507844 -87.1544033 978.0870080
-17.8965405 -86.8066996 977.5176644
-17.8464800 -85.2047354 974.0664363
-18.0100929 -87.5048116 978.6270261
-18.1348696 -87.8202617 979.0651202
-17.7895036 -86.5462348 977.0312309
-17.7792329 -87.6686573 978.8821340
-17.7331101 -87.8725722 979.1379571
-17.3809864 -85.9977230 975.8808017
-17.4897648 -85.4620636 974.7530222
-17.4235664 -85.2367729 974.3002057
-17.2834173 -86.3581374 976.6566157
-17.2179453 -86.9766623 977.8304100
-17.2993839 -86.6473615 977.2577286
-17.3262097 -87.3750970 978.4309864
-17.6033955 -87.5404626 978.6932468
-17.2766969 -87.7477974 978.9391756
-17.4396206 -88.0206227 979.2804718
-17.1311181 -85.6099576 975.1278162
-16.9628747 -85.3170529 974.5886922
-16.5049806 -86.1439928 976.2315750
-16.4752286 -85.7519582 975.4762053
-16.8598369 -85.0400701 974.0738869
-16.6730694 -86.5059718 976.9589305
-16.8064833 -86.7582709 977.4640203
-17.0439873 -88.0617574 979.2876840
-16.6091565 -87.2626752 978.2332778
-16.6345257 -87.6264498 978.7333012
-16.5631995 -86.9695470 977.7984619
-16.4762996 -85.4314193 974.8816490
-16.6363996 -87.9818350 979.1697264
-16.3510758 -85.1426497 974.3742943
-16.2112694 -86.7598578 977.3922563
-16.1865335 -88.2653967 979.4843197
-15.9615166 -87.5302404 978.5715342
-15.9061197 -87.1378109 977.9777527
-16.0027239 -87.8967866 979.0537357
-15.8783998 -86.4135474 976.7165184
-16.0099920 -85.5260193 975.0888944
-15.8568956 -85.2883831 974.6829271
-15.9321707 -85.9160647 975.7988453
-15.8286393 -85.6987461 975.4008055
-15.8607587 -86.1192942 976.1758447
-15.6549774 -84.9773511 974.1722941
-15.4439034 -88.2008150 979.4802070
-15.3774489 -86.8102163 977.3659706
-15.2494917 -87.7836272 978.9459109
-15.3011093 -87.4347389 978.4115553
-15.5617436 -86.0024914 975.9499431
-15.3326113 -85.8419016 975.6423235
-15.4045001 -86.1721635 976.2424231
-15.3656146 -85.5104327 975.0697017
-15.2180512 -85.1968154 974.5557904
-15.2067989 -87.1583968 977.9481292
-15.1331797 -84.7545341 973.8352299
-15.0573645 -84.9720389 974.1949439
-15.0757106 -86.4360631 976.6729474
-15.2672250 -86.0190839 975.9577513
-14.6043077 -87.3151794 978.2364964
-14.7834849 -87.5949189 978.7082076
-14.7693185 -86.1018747 976.0408401
-14.7670358 -87.0207995 977.6831865
-14.5267006 -86.7227837 977.1236181
-14.8016009 -88.0516693 979.4107676
-14.6257794 -87.8019705 979.0464640
-14.6963177 -85.3725299 974.8169184
-14.6052055 -85.7137516 975.3539562
-14.6534080 -85.1067007 974.3939042
-14.5976562 -84.8568156 973.9836454
-14.4785922 -86.4187703 976.5627384
-14.0307890 -85.9710202 975.6889343
-13.9950402 -86.2796530 976.2330055
-14.3314917 -88.1489590 981.9934368
-14.5057198 -87.9919082 982.9689264
-14.2646031 -87.8795832 982.4919701
-14.3371588 -88.0028158 979.4012308
-14.1032143 -87.5833184 978.8648486
-14.0775731 -87.0295987 977.7043462
-13.9494427 -87.2850940 978.2788157
-14.2156100 -88.2253721 979.9714088
-14.1946524 -88.1459936 981.3300371
-14.2523870 -85.2534473 974.5767117
-14.1307684 -85.4961351 974.9340415
-14.1240237 -85.0283578 974.1894603
-14.1022252 -88.1879032 980.6299210
-14.0428077 -86.5432546 976.7272472
-13.8578201 -86.7469832 977.1137238
-13.9803514 -85.7362971 975.2875566
-14.2500941 -87.6403302 982.8802347
-14.5551693 -87.8119171 983.3597541
-13.8373477 -87.8369436 979.5171022
-13.8864089 -87.3632208 982.3930860
-13.9660453 -87.2081593 982.8139544
-14.2115420 -87.3283222 983.2040668
-13.9618758 -87.7185389 981.8795919
-13.8242515 -87.9728049 980.0678492
-13.9550772 -87.9163370 981.2340140
-13.7098497 -85.3059515 974.5335579
-13.4065207 -86.5010992 976.5753746
-13.7994392 -87.8681839 980.6702137
-13.4141697 -87.2730166 978.5033464
-13.5598918 -87.1528387 978.0435562
-13.3373560 -87.3993561 979.2052507
-13.2815856 -86.8751779 977.4361253
-13.6298556 -87.4991193 981.2948704
-13.5764871 -87.2187093 981.8283319
-13.6123197 -85.6345966 975.0360250
-13.6065166 -86.7975727 982.5296402
-13.8904722 -86.8629292 983.0419421
-13.3312242 -86.1144885 975.8034348
-13.6021031 -85.8643427 975.4122496
-13.3097693 -87.4199271 980.3451896
-13.3557050 -87.3503685 980.7692170
-13.2148061 -87.3779207 979.8539877
-13.5264406 -86.9720578 982.1296930
-13.5815004 -86.3697231 982.9255939
-13.8980392 -86.5577534 983.3420515
-14.1999777 -86.9757310 983.5296273
-13.2483179 -86.5812600 982.0423722
-13.2467942 -86.2052888 982.4624062
-13.1969554 -85.2579176 974.2959142
-13.1485807 -85.5767503 974.8141170
-13.2052610 -85.0523487 973.9656448
-13.3007923 -86.8604556 981.7574024
-13.2400608 -87.0238617 981.2654257
-13.3116096 -85.8766660 982.8841686
-13.6685129 -86.0086083 983.3870530
-13.1466677 -85.8461335 975.2728939
-13.4057421 -87.2088745 978.2231450
-13.2297287 -87.1341601 978.1008363
-13.0208731 -87.1454179 978.3666134
-12.7400700 -86.9453102 978.0637622
-12.9332002 -86.8712887 980.7328582
-12.8019722 -87.0547071 978.8061976
-12.8815370 -86.6004825 976.7718911
-12.6412129 -86.7558718 977.3222208
-12.9663143 -85.6234431 982.4960828
-13.1512210 -85.3417441 983.0247164
-12.6204519 -86.3138437 976.1387706
-12.7000129 -86.7603272 980.3045988
-12.9191745 -86.5065679 981.3938141
-12.8354225 -87.0811120 979.4575572
-12.6414681 -86.8431851 979.8451066
-12.9150348 -86.0611424 981.9710851
-12.7361370 -86.0288069 975.5339622
-12.6793431 -85.4888558 974.5367765
-12.5431661 -85.8218372 975.1231074
-12.8770629 -85.1117074 973.9535451
-12.5317322 -85.4166374 981.9123745
-12.6133468 -85.9747678 981.4738035
-12.7053419 -84.9958807 982.5559855
-12.6115074 -86.4236429 980.8095694
-12.6394387 -86.2420872 981.1734557
-12.3402709 -85.2768123 974.0824103
-12.8762340 -84.6413001 983.0456972
-12.4549745 -84.4133124 982.5649858
-12.5363152 -84.0350762 982.8897119
-12.8800226 -84.2330158 983.2475185
-13.3617707 -85.1753652 983.4444523
-13.0765978 -84.5872015 983.3462238
-12.3354224 -86.6457447 979.3559909
-12.5007136 -86.5757763 976.7544866
-12.2867394 -86.7227688 978.6232114
-12.2896554 -84.7590715 982.0618629
-12.3055605 -86.1805752 980.5017114
-12.4100996 -86.0186741 980.9922576
-12.2439098 -86.6589099 977.2792459
-12.2791762 -86.7226943 977.9429436
-12.2618452 -86.3720104 979.9950719
-12.2522237 -85.5519399 981.2651277
-11.9715249 -86.4201784 976.6805172
-12.2429151 -86.0489234 975.5555987
-11.8398601 -86.1918330 975.9860635
-11.9905332 -85.6065154 974.6596217
-12.0734423 -85.8820528 975.2156734
-12.2142788 -83.9980841 982.4663997
-12.0782778 -83.5549086 982.5072885
-12.6557099 -83.5434273 983.2491279
-12.0968940 -84.2918679 982.1028113
-11.8507333 -85.1548612 973.7374783
-12.0919785 -85.0236490 981.5101624
-12.0601868 -85.6815651 980.7264209
-11.9376322 -85.3387937 974.1038680
-11.8343551 -86.0251784 979.6046019
-11.9344881 -86.3587409 979.0031314
-12.3549895 -83.1508338 983.0734730
-11.4530874 -83.0275565 981.9502831
-10.5054658 -82.1666569 981.2052250
-11.9348364 -85.8455002 980.2113175
-11.8769398 -85.1729214 980.9784889
-11.9477613 -86.5076333 977.9198170
-11.8221436 -86.4575878 977.3510695
-12.0056598 -86.5238756 978.4631133
-11.9900675 -84.5918432 981.7098975
-11.8647972 -83.9281082 981.9875956
-11.4752725 -83.5179538 981.6688299
-11.7108030 -85.9151557 975.3024578
-11.8340580 -84.3102708 981.6756248
-11.6399694 -85.2752551 980.4105759
-11.7854793 -84.6754760 981.2960625
-11.6886757 -86.2154514 978.5481691
-11.3675529 -86.0494077 977.9050946
-11.2125231 -86.0975459 976.4189720
-11.1898379 -85.9807432 975.6459594
-11.2211797 -86.0757977 976.0461450
-11.1624794 -86.0213488 977.1265984
-11.5918862 -85.9623402 979.0849090
-11.4951814 -85.3659362 974.1043448
-11.2165399 -85.5787471 974.5829701
-11.2036113 -85.1841196 973.6838937
-11.5957092 -85.5467916 979.9405336
-11.5327360 -84.7427696 980.7927012
-11.5292808 -84.1709301 981.2828898
-11.2711666 -85.4144096 979.3815017
-11.0747237 -85.8033895 975.1111865
-11.2644508 -85.7484639 978.6306024
-11.3248518 -85.1345733 979.9627662
-11.2279356 -84.7064927 980.2807570
-11.2227742 -84.2972994 980.6717038
-11.0870553 -83.7075040 980.9293151
-10.9218536 -83.0069259 981.1921120
-10.8887134 -85.3046924 973.9482403
-10.9186154 -84.6695527 979.7098041
-10.8673032 -85.4692906 978.1724215
-10.7280584 -85.5058953 977.6414633
-10.8714066 -85.2290466 978.7355661
-10.8255772 -84.9108994 979.1885614
-10.6183235 -85.5418593 974.7149944
-10.5597088 -85.3681266 974.1995931
-10.8311456 -84.0141699 980.2334905
-10.6062237 -85.6940448 976.0151505
-10.6677031 -85.6977925 976.6333103
-10.4757594 -85.3864178 977.1038294
-10.6048584 -85.6744498 975.3431678
-10.6337974 -83.2504258 980.5406928
-10.4642510 -82.6369822 980.7423949
-10.5360448 -84.9817842 978.3452153
-10.5043342 -85.1324573 977.9437780
-10.5357654 -84.4309181 979.2266488
-10.4825813 -83.9811787 979.6248078
-10.5383107 -84.7331434 978.8010120
-10.5035184 -85.2232128 973.8518000
-10.4215099 -83.4688246 979.9944162
-10.2177691 -82.8847960 980.1131487
-10.2164820 -84.9312618 977.5377512
-9.9727483 -85.0852132 973.9692807
-10.2704475 -85.2945596 976.5640497
-10.2102570 -85.3681862 975.0607610
-10.2376482 -85.3998587 975.6174088
-10.2096042 -85.3302255 974.5103717
-10.2570634 -84.2718333 978.8273573
-10.1668490 -83.8686600 979.1163206
-10.1695536 -84.4398662 978.3651829
-10.2642654 -84.7861543 978.0030251
-10.0274514 -85.1674676 976.0074615
-10.1117389 -83.3663046 979.5053601
-10.1282038 -82.0659399 980.6281924
-9.9896099 -84.8560482 976.9859314
-9.7065596 -84.7274065 976.4084220
-9.8086372 -85.0767046 974.7253060
-9.8841339 -85.1023272 975.3709435
-9.9476399 -84.4455138 977.7882695
-9.8108491 -84.5013857 977.3067236
-9.8519810 -83.7579593 978.5706401
-9.7601470 -83.9865208 978.0542254
-9.8001873 -82.7810541 979.4174433
-9.7928857 -83.2910463 978.9526463
-9.4630532 -82.4484453 979.0363908
-9.0053193 -82.0485502 978.4360528
-19.5860509 71.2448880 978.3919454
-19.8784899 72.7868155 974.6664762
-19.4404181 72.3914877 974.3932486
-19.6487736 72.1263140 977.0497084
-19.6289010 72.3411292 976.5763283
-19.3908047 72.4393353 975.0251770
-19.6287390 71.6891140 977.7404666
-19.4968190 71.7416108 977.2654176
-19.5809230 72.5045130 975.9924412
-19.5381399 71.4062154 977.9586792
-19.6477771 72.6710632 975.5302668
-19.2733929 70.7155764 978.4114957
-19.2580540 70.4337135 978.9150953
-19.3100106 71.7947111 976.6260386
-19.3583202 71.3535249 977.5151014
-19.3472113 72.0815882 976.1920571
-19.2440674 70.9705055 977.8426290
-19.1543996 71.3153705 976.9826531
-18.9299509 70.1631382 978.3762693
-18.9418755 70.4439953 977.8746963
-18.9069398 69.7666854 979.0781736
-19.1456601 72.1173882 974.1162062
-19.3397142 72.3075867 975.5282402
-19.2247778 72.0818341 975.7972360
-18.8559238 71.9860345 974.5378494
-18.9007297 71.2666437 976.3627648
-18.9929660 71.6765672 975.9683013
-19.0849993 70.9947050 977.3003459
-18.9219359 70.6409663 977.4255753
-18.8686773 71.8289241 975.3004313
-18.5155943 68.7873736 979.4197083
-18.9525951 69.5469156 979.7530770
-18.7746864 70.7267001 976.8514037
-18.6509248 69.9855238 977.8261781
-18.5479224 69.6426705 978.1318307
-18.6337307 70.2081770 977.3398638
-18.7398586 71.2516010 975.9820700
-18.5823273 71.2160096 975.6389856
-18.3410328 69.1180751 978.3580303
-18.4794106 70.6782714 976.1812091
-18.4861775 71.5980157 974.7486711
-18.4033159 71.2812468 975.0533700
-18.3958281 71.6639534 974.2584229
-18.3948949 70.1326951 976.8043160
-18.2609670 69.6058571 977.3200154
-18.2620864 70.6281438 975.7048488
-18.2950478 70.9296092 975.2908945
-18.2152111 69.2530498 977.7536392
-17.8196076 68.3619678 977.9545069
-18.2204433 71.2855309 974.5298624
-18.0240348 71.2182820 974.0620852
-18.1561317 69.9813366 976.4524102
