# 3D Systems, Inc.
# New Model
46.6003306 18.3358435 -23.7800330
46.5949066 21.2156381 -22.5004088
46.5541780 21.8064599 -22.3249160
46.4741252 22.3331321 -22.8777919
46.5732329 15.8337858 -19.6678955
46.6062613 18.9547539 -20.3297734
46.6061309 19.7140705 -20.1965459
46.5965904 16.4184459 -22.7310602
46.5900935 15.7021135 -22.2882573
46.5997122 16.9412587 -22.9653381
46.6135442 20.3232951 -23.1667925
46.6190502 17.7680757 -20.6814818
46.6283783 18.4352640 -20.7329541
46.5869047 15.4466312 -20.0701188
46.6052368 17.0868989 -20.3208104
46.6290936 20.7508579 -20.7189899
46.6138124 21.1591534 -20.8071638
46.6243140 17.6120996 -22.8438862
46.6488190 20.4011016 -22.2896487
46.5952866 16.4726730 -19.9661124
46.6471389 18.4935667 -23.0473243
46.6394424 20.1976225 -20.6381213
46.5619788 21.8901671 -21.6739643
46.6163903 21.2107170 -21.7259955
46.4975201 22.4690735 -22.0346805
46.5148725 22.3026425 -21.3080831
46.6234908 16.4657459 -22.0206007
46.6263741 17.0410853 -22.3900713
46.6251485 18.7836029 -23.6066449
46.6474965 19.1967599 -23.2702587
46.6548055 18.8675188 -21.0379008
46.6580354 19.6022484 -20.9477264
46.6313548 21.0466515 -21.1005341
46.6453433 18.1806609 -21.0953820
46.6518924 18.5010843 -21.1052895
46.5963818 15.3951943 -21.3984177
46.6215201 16.0121918 -21.6195043
46.6340110 17.0982573 -21.0132357
46.6269962 16.4982025 -20.6610467
46.6150716 15.9360897 -20.3378107
46.6468930 17.7084282 -21.3600732
46.6350205 16.5128205 -21.3380139
46.6402620 17.0842465 -21.6985922
46.6493554 17.6880509 -22.0429953
46.6612019 18.2199478 -22.3543085
46.6260761 15.9626380 -21.0039672
46.6593429 19.7312068 -22.8553824
46.6005653 15.4319815 -20.6445083
46.6574058 20.4361174 -21.2835297
46.6658659 18.4130892 -21.6020867
46.6821268 19.1791002 -21.6058176
46.6757864 19.1561170 -22.7227118
46.6804653 18.8353807 -22.2529806
46.6798060 19.8200997 -21.6507930
46.6839187 19.5158422 -22.2181100
44.8215827 16.4152943 -11.9808428
44.7703712 15.5136809 -11.8190739
44.7745062 15.8994850 -12.5068966
44.9054427 16.0063244 -11.2277977
44.7473601 14.9942115 -11.6604278
44.7531343 14.8775727 -12.0243980
44.7812378 15.1619976 -11.3787642
44.7668657 15.2757727 -12.4768717
44.8126681 15.5096613 -11.3450531
44.7969176 16.4646469 -12.6420762
44.8202863 16.9657823 -12.4426642
44.8379442 16.9077478 -13.0671831
44.8585004 16.1341000 -13.2215768
44.8831283 17.1625968 -11.9327335
44.8616594 17.4406897 -12.3095447
44.8414199 17.4042918 -12.7425082
44.9873842 16.9028714 -11.3402437
44.9209847 17.6639818 -12.0021421
45.0014733 17.5875835 -11.5520675
44.9140407 18.0071872 -12.4420747
45.0212285 18.1209054 -11.7951669
44.7587483 14.6488510 -11.6813714
44.7701477 14.7942780 -11.4278439
44.8153913 14.3722165 -11.3717215
44.7934344 14.2297456 -11.9447149
44.8490679 14.8214186 -11.0852579
44.8729806 13.5169476 -11.3775777
44.9655578 14.2419329 -10.7463682
44.8139198 14.6307554 -12.5797773
44.8739529 17.7484043 -13.0657339
44.8514558 17.3555985 -13.1382700
44.8038168 15.6014422 -12.9138585
44.8531583 13.5546587 -12.1429972
44.8368825 14.0410168 -12.4529190
44.8865443 15.3759383 -10.9962262
45.0299941 18.5796749 -12.0667610
44.9091792 18.2700045 -12.9631096
44.9947789 18.8263170 -12.6165366
45.2042222 18.1561355 -11.1946678
45.1360047 17.5166056 -11.1019956
44.8519550 15.1454788 -13.0269807
45.0348854 13.3481473 -10.5077596
44.9281968 12.8005855 -10.9753385
44.8761322 12.8559750 -11.4137912
44.9383482 17.3608419 -13.6731341
44.9163616 16.6649837 -13.5919647
45.1002158 16.5008865 -10.8565520
45.0343378 15.7588236 -10.7472911
45.0416766 16.1014535 -10.8340103
45.1730043 18.7273510 -11.5502747
45.0077318 15.0075341 -10.6482832
44.8945798 15.5477161 -13.3312987
45.0302362 15.7239400 -13.8266990
44.9959114 16.2532106 -13.8418823
44.9126177 18.0908497 -13.4354988
44.9467786 18.6745748 -13.2640125
44.9179895 13.6311799 -12.6762586
44.9293032 13.1698679 -12.4611882
45.1723784 13.9499232 -10.1319710
45.0551659 12.5882858 -10.4120029
45.2022217 12.9183019 -9.9862171
45.2137180 13.4204421 -9.9945599
45.0350046 19.3966627 -13.1895179
45.1242067 19.6362119 -12.4605065
45.1498702 19.2116424 -11.9563183
45.2147759 14.6830725 -10.2007510
45.2276617 17.1324201 -10.7936086
45.3923233 17.7997369 -10.6917946
45.2016219 12.3768495 -9.9509861
44.9203625 14.1506707 -12.9289860
44.9419469 14.6618644 -13.2152867
45.0280756 15.4132089 -10.6585901
44.9611768 18.4906255 -13.7571087
44.9679494 17.9992747 -13.8869006
44.9840464 18.9704522 -13.6313047
45.2864543 15.5309690 -10.3102075
45.3703254 13.1874811 -9.6889837
45.0304672 12.7167692 -12.6424618
45.0278334 15.1017960 -13.6534059
45.1535545 20.1276392 -12.8718307
45.3128517 20.0241338 -11.8110543
45.2248640 20.2192999 -12.3451389
45.1968610 16.1483586 -10.5454829
45.4088226 13.6883417 -9.7234389
45.0480394 19.4128789 -13.8676334
45.1342911 20.1222450 -13.6284297
45.0841412 17.7202523 -14.3198296
45.0540110 16.6705009 -14.0905762
45.1344028 17.0911588 -14.4072408
45.0259224 18.8776888 -14.0828649
45.0267978 13.1735234 -12.8956931
45.0479686 18.3314718 -14.2467823
45.0537801 13.6355124 -13.2006509
45.3618430 18.8230127 -11.0626742
45.5145836 18.5111612 -10.6882267
45.0710468 14.1630881 -13.4746628
45.6514396 13.3188795 -9.3703801
45.3935191 19.4658395 -11.2697836
45.0972170 19.2926172 -14.3967457
45.1222733 19.8197290 -14.2739015
45.4741344 14.3010961 -9.7800829
45.3467146 16.7212877 -10.4583707
45.5160625 16.2943397 -10.1761492
45.2641211 20.6153542 -12.5486013
45.2504940 20.7651816 -13.0719775
45.1330319 18.7718961 -14.5976664
45.1874398 16.0790291 -14.3934228
45.2892967 15.2063603 -14.4625735
45.0814441 14.6015165 -13.6697572
45.5347523 17.3533373 -10.3874104
45.8566621 12.8763393 -9.0644220
45.7113348 12.5716310 -9.1042528
45.2303998 18.1252155 -14.8465009
45.2645980 17.4076073 -14.8558216
45.3607030 20.6819307 -12.0542618
45.2140681 20.4695910 -14.3827638
45.2471226 20.8666157 -13.7334922
45.1236740 12.7660399 -13.0452048
45.1822616 13.0407428 -13.3721875
45.7174331 13.9304744 -9.4699524
46.0048616 13.6587154 -9.1837412
45.8683856 13.2871447 -9.1365250
45.2030748 14.7017324 -14.0611166
45.6957482 18.1569979 -10.3691109
45.5872342 17.7676324 -10.4021914
45.1557077 12.3811709 -12.9540153
45.6917509 15.0596639 -9.7892899
45.1588929 19.6249336 -14.6630062
45.2055372 19.2521494 -14.8767550
45.5260165 20.1796349 -11.2059470
45.5427319 20.7592770 -11.4258183
45.1909490 19.9932922 -14.6851977
45.2015214 16.5906474 -14.5478984
45.2786200 13.4994565 -13.8865151
45.2316068 14.2069524 -13.9910551
45.6468090 19.2483477 -10.6745139
45.6919558 16.9158801 -10.1366648
45.4148799 21.2671198 -12.4129374
45.3005768 18.7502522 -15.1355062
45.8072498 15.8875398 -9.8880986
45.3124195 16.8066472 -14.9030183
45.3950427 21.5778667 -13.2484175
45.2643000 19.7492950 -15.0549542
45.7414389 20.0355910 -10.7006561
45.3468524 21.4147624 -14.3329883
45.2866927 20.2687420 -15.0269279
45.3178324 20.8209604 -14.9673037
45.4230383 17.6414456 -15.3347207
45.4385988 18.2350222 -15.4614085
45.3715548 19.3092190 -15.3866624
45.9595844 18.8616496 -10.2521749
45.5070399 21.1873874 -11.8068885
45.3845449 14.3828979 -14.5288100
45.4506874 17.0499403 -15.3212287
45.9699407 16.5657289 -9.9137006
45.3287400 16.3281150 -14.8607753
45.4267263 15.8003811 -15.0148813
45.3714095 13.8760312 -14.3256113
45.8459817 14.4688636 -9.5067415
45.9973477 14.1291209 -9.3148602
45.8467938 17.3835550 -10.1191867
45.7997657 17.7640915 -10.2132717
45.4980880 14.6988453 -14.9696814
45.5531329 15.1564665 -15.2407791
45.4826355 18.7921822 -15.6562347
45.4562940 19.9861750 -15.6608336
45.3786105 20.5383021 -15.3847998
45.7294025 20.6039865 -10.8622825
45.6216931 22.2273674 -12.3996809
45.6273891 21.7706040 -11.8009849
45.4522483 13.4727554 -14.4576831
45.4031676 21.3498604 -15.2122239
45.4504974 22.0613722 -13.7414597
45.4626121 21.9895244 -15.0402868
45.4756506 22.2738199 -14.3577317
45.5090888 16.3820982 -15.3661333
45.4033054 20.9158324 -15.4367965
45.6745066 21.4357916 -11.3620153
45.7978770 21.1827662 -10.9164948
45.6144437 17.7381262 -15.8724692
45.6111431 18.3429252 -15.9562640
45.5694906 17.2734950 -15.6788379
45.5647521 22.4328805 -13.1439958
46.1295694 17.1679370 -9.9398559
45.8446145 12.5395171 -8.9643747
46.1137183 19.7563767 -10.2191037
45.5102995 13.8026504 -14.7602456
46.2965146 15.5897867 -9.6131684
46.1778864 14.8949940 -9.4624292
45.5621071 19.2881767 -15.9332827
45.4980172 20.6532385 -15.8227421
45.5010943 21.1972874 -15.7893654
45.5204286 21.7725616 -15.6910792
45.6182100 22.4981476 -15.7077704
45.5583036 22.6330087 -14.9543164
45.5875173 14.1711077 -15.1219452
45.6365906 18.8045818 -16.0915460
45.6394926 16.7794265 -15.7899819
45.7445160 17.9890785 -16.2651855
45.5650613 22.6674955 -13.7613006
45.6245281 22.0222212 -16.1473192
46.1548194 17.7019592 -9.9954056
45.8705276 20.5117203 -10.5482927
46.0071526 20.9358372 -10.4445573
46.0767895 13.2737011 -9.0225087
46.2605841 12.9988370 -8.8806683
45.6018597 13.2560497 -14.8972385
45.8074734 21.9904799 -11.2858275
45.8406918 22.4696621 -11.5806125
46.0886434 20.4559434 -10.2650765
45.6808805 15.6563967 -15.7202389
45.7322039 17.1484631 -16.0980057
45.6714220 14.5785268 -15.4828290
45.8596386 21.6961894 -10.9720696
45.7172468 16.2549224 -15.9211755
46.2523550 16.2292290 -9.7398013
46.0707843 18.2182603 -10.0891404
45.6585698 13.6496630 -15.2163003
45.7351953 15.0062833 -15.7638937
46.5133600 13.5180810 -8.9695500
46.0838974 21.6339398 -10.4993526
45.7913764 13.1040988 -15.5299800
45.7167439 22.4114638 -16.4533854
45.7952134 13.9178373 -15.7580171
46.1587496 14.4510027 -9.3246326
46.3580899 14.0964193 -9.1726305
46.5664901 16.8090221 -9.7818319
45.8350442 14.5467417 -16.0058606
46.4288816 21.2668125 -10.0123780
46.2092906 20.8531599 -10.1584308
46.0181050 22.2071633 -10.8479289
46.4653559 18.6505076 -9.9807540
46.5235338 19.3023104 -10.0011425
45.9262617 12.7180787 -15.9768686
46.5218611 18.0653334 -9.9153146
46.5987101 17.5016169 -9.8535372
46.5584323 14.5816868 -9.2817489
46.3554002 21.8449496 -10.0992918
46.2742113 22.2528037 -10.3291543
46.8029194 12.8858946 -8.7190978
46.7628501 15.1024153 -9.4251875
46.4623794 20.3213803 -9.9848835
46.6977544 19.9067481 -9.9373832
46.3889502 20.7306203 -10.0150649
46.9946153 14.1308336 -9.1028139
47.1156351 13.4989200 -8.8770352
46.6166064 21.8404252 -9.8065119
46.8453579 20.7311753 -9.8020174
47.1203811 21.5338320 -9.4997790
46.4968123 22.2027861 -9.9555813
46.7268191 16.1714070 -9.6552316
46.9743870 18.3116253 -9.9225324
47.0136479 18.8688394 -9.9521512
46.8182191 22.3499332 -9.6011152
46.9544046 17.8109556 -9.8751970
46.8025431 20.2903990 -9.8634120
47.2542532 19.4336977 -9.9324882
47.1861139 17.2327869 -9.8131038
47.1167974 16.5878683 -9.7162751
47.0173880 14.6839228 -9.2872242
47.3579019 12.4866189 -8.5246582
46.8832254 15.6489071 -9.5492639
47.3862104 15.2987326 -9.4552701
47.1844897 14.9300387 -9.3611125
47.2970977 20.1642159 -9.8221032
47.4900678 13.1180957 -8.7275226
47.3274849 16.0118695 -9.6162194
47.5558899 20.8003987 -9.6111130
47.4784821 17.9149397 -9.8948488
47.4279113 18.5235981 -9.9419886
47.7151684 13.8018997 -8.9617511
47.4713966 18.9393759 -9.9560544
47.4390946 21.8662322 -9.1628768
47.6614423 21.5732139 -9.2159063
47.1997336 22.2225059 -9.2157666
47.7554910 21.2377552 -9.3870712
47.5561135 14.6200880 -9.2460066
47.7757268 16.6258961 -9.7419694
47.8318855 22.0065210 -8.9402953
47.4578142 22.1534483 -9.0449834
47.7873497 17.3502136 -9.8462543
47.8969924 19.7019912 -9.8913424
47.9143970 19.1094577 -9.9798739
48.0428040 20.2762242 -9.7204791
48.0159260 12.7767213 -8.6381119
48.0741449 15.6693626 -9.5703024
47.8918813 15.0671415 -9.3897544
47.7587469 18.7362898 -9.9768974
47.8796102 18.3428265 -9.9608405
48.2889600 20.8585169 -9.4484091
48.1335521 17.8043228 -9.9269468
47.9383171 13.2671343 -8.7784976
48.0424576 14.3067073 -9.1494340
48.0822027 14.6974968 -9.2846099
48.1490493 21.4305148 -9.1719041
48.2451394 13.5021135 -8.8935057
48.2500196 13.9585091 -9.0510305
48.2194722 13.1587964 -8.7710489
48.3531915 17.1577185 -9.8698465
48.5674255 16.3574461 -9.7713377
47.2257622 12.8503051 24.4043842
46.7751808 12.8473621 24.5091282
47.7118976 12.9016805 24.3680868
47.5110151 13.4105226 24.5422088
46.9598174 13.3493710 24.5841593
48.1776893 12.6653183 24.2876150
48.2136086 12.0361457 24.0424871
48.1135473 13.3364340 24.5317779
43.8640118 17.3769780 28.4716953
43.8529216 17.8605635 28.5927374
43.8200980 17.5895169 28.9864205
43.9277440 17.7760608 28.1555913
43.8277870 18.0769097 28.9145708
43.9297631 18.4839461 28.4594074
43.8359901 17.0157496 28.8677923
43.9776853 17.1215255 27.8887544
43.8793749 16.9004705 28.3695962
43.8340008 18.4497386 29.1348938
43.8098572 17.9945398 29.4185542
43.8919067 19.0312359 29.1246660
44.0302566 18.1570668 27.8430320
44.0498702 18.5829625 27.9349033
44.1615209 19.1415027 27.9167853
44.0087169 19.2683209 28.5718963
43.8559875 17.2007233 29.6810009
43.8277759 18.6491199 29.7755562
44.0320447 17.6608097 27.7165100
43.8362136 17.9734826 30.0424583
43.8722894 16.4710786 28.5865031
43.9347997 16.5194608 28.0638412
43.8839830 19.4686502 29.7725592
43.8643172 18.4342582 30.5248778
43.8591912 19.1481113 30.4388124
43.8625999 16.5449921 29.1534811
44.1751070 18.5420532 27.5522489
44.2088023 17.8958662 27.2896532
44.0109335 19.8515542 29.0615223
44.1607460 19.8213868 28.3283163
43.9452417 17.5525546 30.8329351
43.8983440 19.8767073 30.4525197
43.9624749 20.2274080 29.8134927
43.8962467 18.8749563 30.9688300
43.9231060 19.5332319 31.1707594
44.0485142 16.5101141 27.5906492
44.1136695 17.3603855 27.4475254
44.1394858 16.8791674 27.3468308
43.9431407 16.1863118 29.7842026
43.9525731 16.7134721 30.4074436
43.9223573 15.8390887 28.8951583
43.9356491 16.0043761 28.2242112
43.9380296 18.3614418 31.1106406
44.3681143 18.9962033 27.2903964
44.3192944 19.8254492 27.8345812
44.4430709 19.5880495 27.4210926
44.0054014 16.1167439 27.7754478
43.9551473 20.5701999 30.4691363
44.1036671 20.6605941 29.2553287
44.0470688 20.9225789 29.9033988
43.9365730 20.2758890 31.0884025
44.3594791 18.4683762 27.0901881
43.9694226 15.4833803 28.2912962
44.0369397 15.5989509 27.7942233
44.0019891 15.0347743 28.6651924
44.0602861 14.9379531 27.9503893
44.2101099 20.4679854 28.6050979
43.9852737 18.8483261 31.6222571
44.0228805 15.1423719 29.6529271
44.0786108 14.4268852 28.2912590
44.0827422 14.3731423 29.0396474
44.0246426 21.1929027 30.5063333
43.9788997 20.9097173 31.0802050
44.1907607 15.0969960 27.3251086
44.1019535 14.4652715 27.8797057
44.1757478 14.4608533 27.5297593
44.0076776 18.0918928 31.6061191
44.3655923 20.3565937 28.0225072
44.1713296 15.9588829 27.2592101
43.9883322 16.1633473 30.4380171
44.0097488 15.6970005 30.2725006
44.1311821 21.5353649 30.0057456
44.2023799 21.3479623 29.3989703
43.9836271 20.0715829 31.6788703
44.0309942 19.5658449 31.9912471
44.2875437 17.2520913 27.0352568
43.9922921 16.7909972 30.9380908
44.0346003 17.5105724 31.6730402
44.0389775 16.8896206 31.5181799
44.0382659 21.4846134 31.0539715
44.1019498 21.7381418 30.5439234
44.0001525 16.3835604 30.7783559
44.1576354 16.4761618 27.2648744
44.0036319 20.6500720 31.7109637
44.4197319 18.0735383 26.8790852
44.4117226 17.6562387 26.8313494
44.0321416 21.2665088 31.6516422
44.5396602 20.2040263 27.5178850
44.2976244 21.1390518 28.7872218
44.0997817 20.2837400 32.4518457
44.5192792 18.8445617 26.9113109
44.6663573 19.3728060 26.9058757
44.0691337 18.4361450 32.1463570
44.0987945 19.0058202 32.3804691
44.0818481 21.0518241 32.2933942
44.0913141 21.8720362 31.5440893
44.0889262 21.6166228 32.1500637
44.0576039 15.1566006 30.5412058
44.0967716 14.2374402 29.7819395
44.0799668 14.6111660 30.2633066
44.2169979 22.0690295 30.1213078
44.2906283 21.9503399 29.5799933
43.9630672 12.8199542 34.2017673
44.0423377 15.8347562 30.9558101
44.1050045 21.9316743 30.9767053
44.0917201 17.8127084 32.2545022
44.0293029 16.4142605 31.1591458
44.1438369 19.5922442 32.6553136
44.1658981 14.0410820 27.8471503
44.4311239 20.9655799 28.2219835
44.3300717 16.5640339 26.8991292
44.1895686 22.2265907 30.6100193
44.4472581 21.8787808 28.8951863
44.1648699 13.7111275 28.5293311
44.6017683 18.4466373 26.6867913
44.0735333 16.1732044 31.6228382
44.0897159 15.1041131 31.2517099
44.0908894 15.5853275 31.6010006
44.3386175 13.7370955 27.1537211
44.2383252 13.4615414 27.8572999
44.1757105 22.3361980 31.1217159
44.1196039 22.0500790 32.0640989
44.1701710 22.4145260 31.6848159
44.2901850 14.4966850 27.1083321
44.1400744 13.6838648 29.3384232
44.3542115 15.3835528 26.8169083
44.3519093 14.8494821 26.8764216
44.1361591 21.5285514 32.7200219
44.1684797 20.9424794 32.9894945
44.0432839 13.2506257 33.5902460
44.0615527 13.0169978 32.9230167
44.0253168 13.5433488 34.2522301
43.9409837 13.0502814 34.8002687
44.0982059 14.5429298 30.8868773
44.0900847 17.2047727 32.1552865
44.0834463 12.9056424 32.2147720
44.1291630 21.9332501 32.4649960
44.1709645 22.4275645 32.3248021
44.3993993 15.9430001 26.7071445
44.1677831 22.0628306 32.8979716
44.1644117 18.3835682 32.8640528
44.2122817 20.4095207 33.1908092
44.2083143 19.9183337 33.0587365
44.1083983 16.5799931 32.2513804
44.4995612 21.5052310 28.3967312
44.1187918 15.7377329 32.2748348
44.1975147 19.1708840 32.9966880
44.1149250 15.0790419 31.9223180
44.1156253 14.4237019 31.6374861
44.1083759 12.9030338 31.5065384
44.3550237 22.4015694 29.7814906
44.3236344 22.5718953 30.2054193
44.6376055 17.1694458 26.4711678
44.6939692 19.9663192 27.1060597
44.1172011 13.9624448 30.4914545
44.4944613 22.4729795 29.2845462
44.0818854 13.8309058 33.6403996
44.0891869 14.2663792 34.0329893
44.0418534 13.9960032 34.5921777
43.9858064 13.5871405 34.9070691
44.6247049 20.8374206 27.6737977
44.6268469 17.9003719 26.5599731
44.1019312 13.7667414 32.9906754
44.1178046 13.9927836 31.1564449
44.1695265 17.2287691 33.0857113
44.1339388 13.6325108 29.9518481
44.1309288 12.4230292 30.7832975
44.1293418 12.8454613 30.8950115
44.1167802 14.3311061 33.3465114
44.1313572 14.8680899 33.6121097
44.1357456 14.8263779 33.0733694
44.1277884 14.4316265 32.7442624
44.1053100 13.4671582 32.4289873
44.1193208 14.8615800 34.2218243
44.0760367 14.4268675 34.5684402
44.1535674 15.4376775 33.8884145
44.1461951 15.4773267 33.1214517
44.1321060 15.0249433 32.5575843
44.1264696 14.6005554 32.2272778
44.1670902 13.0038755 29.7508966
44.1929884 13.1270187 29.0206857
44.1489108 12.6717268 30.3877909
44.1379659 13.2587226 30.4180682
44.4571748 14.3444203 26.6894847
44.1420116 15.3035345 34.4365947
44.0961979 14.8485601 34.7991176
44.1220887 14.0471878 32.2916172
44.1169851 13.5972872 31.7489691
44.2618094 12.8639489 28.3345692
44.1247486 13.4292021 31.0338959
44.3358459 12.9721845 27.5275856
44.1472121 16.2445959 32.8638032
44.3930179 13.0652310 27.1057095
44.4787107 13.1274872 26.8065948
44.5565507 13.5329096 26.5439339
44.4801114 13.9030246 26.6684908
44.7185971 18.9197920 26.6488381
44.2022830 21.5625484 33.3842710
44.2762934 20.7983088 33.8254683
44.2320481 18.1078240 33.5533023
44.2658253 18.8969728 33.6308926
44.1779941 15.9017723 34.3564935
44.1379584 15.4469488 34.9319987
44.1758744 16.1946621 33.6011760
44.6711890 16.2916072 26.3230167
44.2108065 19.5632316 33.0317430
44.8202007 18.2407610 26.3978932
44.9982174 17.8233236 26.1831246
44.2627817 21.6759406 34.2382789
44.2075506 22.3698784 33.5063487
44.2463532 17.6543854 33.9518525
44.2291908 16.8623626 34.3267620
44.2815386 20.0846773 33.6008370
44.2597382 19.5465833 33.3961062
44.8897257 18.6673477 26.4052432
44.2949496 18.3721110 34.2640989
44.5313565 14.9308741 26.4841095
44.1919118 16.1397271 34.9987149
44.2869253 17.7036971 34.5970318
44.3300568 19.0669131 34.3167782
44.3270877 18.2895027 35.0117050
44.3502329 18.8964102 34.8795354
44.7234400 22.0619962 28.2287151
44.7548144 22.6694308 28.6440570
44.6881279 21.4730147 27.9015731
44.8720083 20.6282549 27.0969179
44.3290956 21.0114755 34.5887393
44.3148836 21.3832781 34.9739529
44.2707278 22.0335182 35.0028165
44.2361534 22.5550272 34.3373865
44.3291925 19.6226891 34.0400934
44.2826934 17.2844473 34.9536166
44.3135910 17.7627094 35.2270789
44.3364084 20.1998837 34.0833813
44.3576500 20.4817299 34.4869457
44.3747751 19.5585638 34.7896330
44.7087921 12.8874900 26.3158102
44.5982739 15.5402478 26.3556875
44.2478769 16.7770125 35.2017283
45.0344086 19.2458127 26.4106505
45.0316630 20.0133342 26.6423207
44.3703607 20.6904877 34.9913910
44.3484299 21.0225992 34.9908210
44.6370691 14.0071614 26.3428669
44.6695872 14.4954929 26.2691062
45.0535491 18.3654912 26.2038670
44.3710275 20.0076289 34.4705284
44.3885550 20.1731324 34.9579901
44.8150113 13.5629922 26.0765683
44.9063741 16.7472325 26.1086524
45.0978540 17.1516929 26.0052625
44.9376591 21.3759802 27.3376498
44.8546261 14.9868317 26.0120425
44.9768491 13.1232319 25.8556865
44.9702442 12.6956366 25.8756131
44.9364483 14.2161455 25.9086788
44.9288525 15.7359671 25.9682685
45.0738855 16.3733829 25.9173848
45.2072844 18.7731087 26.1491630
45.1464616 16.7654101 25.9079393
45.0058803 22.0767464 27.6137646
45.4588160 17.6193863 25.8190036
45.4230309 18.3182526 25.9367730
45.5544554 16.7937037 25.6504919
45.1592319 21.2239902 26.8836524
45.2318043 20.7379907 26.6042743
45.4734191 19.7652634 26.1597261
45.3935936 19.1812143 26.0803476
45.1796129 13.6328945 25.6211683
45.3240909 15.9172509 25.6484579
45.2696234 14.6817584 25.5790055
45.2148505 14.1547313 25.5955085
45.1669097 15.3259439 25.7021766
45.8899364 18.0754997 25.6613474
45.8683930 17.5183974 25.5915876
45.3620479 21.9912324 26.9261990
45.3826115 20.3382466 26.3288412
45.2846922 12.8526762 25.4857261
45.5290824 15.3170554 25.4279636
45.5342717 18.8477561 25.9305332
45.9204055 18.6910909 25.7366151
45.4645865 21.3602539 26.5207700
45.5825031 20.8299644 26.2536053
45.6022546 13.4344138 25.2236277
45.5076918 14.0899373 25.3448319
45.7990356 15.9684550 25.3801662
45.8083339 19.2730371 25.8724857
45.6673130 12.8535470 25.1158848
45.4973951 12.5626894 25.2426267
46.1773649 17.2305536 25.4411865
46.1851433 16.5839195 25.3379196
45.6788130 21.8907297 26.4307018
45.8850600 21.4589182 26.1437986
46.0843146 13.9464550 24.9748379
45.9464639 13.2227512 24.9439627
45.7477681 14.6897705 25.2271593
46.2905020 17.8109743 25.4896022
45.6856787 20.3289203 26.0935333
46.1068451 19.9931394 25.8821342
45.9934995 20.7465626 25.9908084
45.9964648 22.1676752 26.1642560
45.7768627 22.4468391 26.5038554
45.9701866 15.3242731 25.1980145
46.2178141 14.7653399 25.0307191
46.4254580 18.4097923 25.5534090
46.4024283 13.1902266 24.7094519
46.4501195 15.8886276 25.1778662
46.5216972 19.2110334 25.6791040
46.3703647 21.2654974 25.9067882
46.5074293 20.6445530 25.8437600
46.3170819 21.9230559 25.9275474
46.6831103 14.3502615 24.8714741
46.6587096 13.7729608 24.7430280
46.3172384 22.4601328 25.9517170
46.1358801 22.7617975 26.1839442
46.3780798 15.2654946 25.0803269
46.6783680 14.8942024 24.9830112
46.6207266 17.0799643 25.3064353
46.5799607 17.5421070 25.3835283
46.8001254 21.7016228 25.7897191
46.8177758 21.1098008 25.8039497
46.7113256 16.5559556 25.2131931
46.8728468 20.0845618 25.7552601
46.7215739 22.3947968 25.7568918
46.7959829 18.0022754 25.4231188
46.9563007 20.6929613 25.7811323
47.0000990 15.3147383 25.0618793
46.9539203 16.2338130 25.1580738
47.1939035 15.8663448 25.1335073
47.1301042 18.6204445 25.5067255
47.2681373 21.3361979 25.7456731
47.0740460 21.0010670 25.7736165
47.1735038 13.9403157 24.7190148
47.1192710 17.0153584 25.2426378
47.1628718 16.5865850 25.1841769
47.4118330 19.4829255 25.6589670
47.3908335 22.1280716 25.6391019
47.3588333 14.6174328 24.9159262
47.0079966 17.5355878 25.3259819
47.2263955 20.4668194 25.7595051
47.4109650 20.1392006 25.7353112
47.6065017 17.4980089 25.3080018
47.6462319 16.8371443 25.2290200
47.6519875 15.4876160 25.1092874
47.5942641 15.0789041 25.0394065
47.2953506 20.8488181 25.7640630
47.4572107 16.3218174 25.1717847
47.8397273 15.9655418 25.1729563
47.3206528 18.0329941 25.3826305
48.0042100 16.4644122 25.2290107
47.5817621 18.3991455 25.4369043
47.8254557 18.7830757 25.5390145
47.6687327 21.0053492 25.7524140
47.8942394 21.5014517 25.6956741
47.8124209 13.9639368 24.7366671
47.6277284 20.5601770 25.7617291
48.1062941 17.1690881 25.3084283
48.0697751 16.8075860 25.2624471
47.7873087 18.0880334 25.3885351
47.9264408 20.0936496 25.7422552
48.1901206 19.4513071 25.6846938
47.9120240 14.7890132 25.0001848
48.0379872 14.4087030 24.9036867
48.2471995 17.7689735 25.3978763
48.0906740 15.1130287 25.0836760
47.8313304 18.4163135 25.4426319
48.2736789 15.5618014 25.1752120
48.1197648 18.3443669 25.4653618
48.2796989 20.7468197 25.7759709
48.4965816 16.1032975 25.2741463
42.2200598 12.5898086 44.6488708
42.3310287 13.4072369 44.6288176
42.4879491 12.9821571 43.8615605
42.0497358 12.9011190 45.3688242
42.4640588 14.1199464 44.4582626
42.5945297 13.8494540 43.8431315
42.3044153 13.9841177 44.9656472
42.1624593 13.5273673 45.2558883
42.4072593 14.4084888 44.7714031
42.5040163 14.5870578 44.4741882
42.4412899 14.7868106 44.7436199
42.2706157 14.6085946 45.2588312
42.4103104 15.2437398 44.9148603
42.5586663 15.0803654 44.3554036
42.5188728 15.6449061 44.5667282
42.3778184 15.9057919 45.0946316
42.2432944 15.3877158 45.5119684
42.6008403 14.5289684 44.0701582
42.4987674 16.9615000 44.7392538
42.5383002 16.2235275 44.5440263
42.7393019 16.6001786 43.8857973
42.4014032 16.4606441 45.0392477
42.5406322 17.8927202 44.7094776
42.6903367 17.2909312 44.1541485
42.2527716 17.3963849 45.5330536
42.3154682 16.7871788 45.3311168
42.6506810 12.8970305 43.1972928
42.7055992 13.4275928 43.2299376
42.6928625 15.6928729 43.9273566
42.6271781 18.7203940 44.5689633
42.7488722 18.2557479 44.1281050
42.4025804 18.5833070 45.2010669
42.7939594 17.7615136 43.9005308
42.2859341 18.1244873 45.4841182
42.7534021 14.5166628 43.4562564
42.7830815 14.0051888 43.1623086
42.6950268 15.0077734 43.8128002
42.6184945 19.4428600 44.7003692
42.7888520 19.0935023 44.1409126
42.4516350 19.0876015 45.1296680
42.6965505 20.0250484 44.5566662
42.8726934 19.6547005 43.9699665
42.4345285 20.0193487 45.2882946
42.4472317 19.4764398 45.1947488
42.8226963 18.6577309 43.9663716
42.9390743 16.0537232 43.0831872
42.8539477 15.2031220 43.2273373
42.8081118 13.1189572 42.6273718
42.8669378 17.2222424 43.5651243
42.9447591 16.7507492 43.2061628
42.8685136 13.7430653 42.6800065
42.6937118 21.2191697 44.6666665
42.6655933 20.5872897 44.7150245
42.8324006 20.9012106 44.2564338
42.4311608 20.9148582 45.3825071
42.8795367 20.3938615 44.0613665
42.7473746 21.9204184 44.4872007
42.9315232 21.3505514 43.9432077
42.5230078 21.5955358 45.1506004
43.0139266 21.9559651 43.6504222
42.8934582 22.5804001 44.0086573
42.5490253 22.0769476 45.0634435
42.5899066 22.6393268 44.9078642
42.9678969 14.5291751 42.5683707
42.9401323 18.2263236 43.5166992
42.9888628 18.9757608 43.4873365
42.9643393 20.8604839 43.8419543
42.9522619 17.6678840 43.3731228
43.0607498 15.4377352 42.4864627
43.0468656 20.0691875 43.4789434
43.0677980 19.5528604 43.3291942
43.0432148 13.6743532 41.7931825
43.0461429 20.5568355 43.5436852
43.1051590 16.6458189 42.6139794
43.1638248 16.0938464 42.2546491
43.0608802 17.2791388 42.9214351
43.0090986 13.0902026 41.5698625
43.1019515 20.9845863 43.3685072
43.1206748 21.4815717 43.3020443
43.0716090 17.8562757 43.0129245
43.1626514 18.3962490 42.7991748
43.1586504 14.5766102 41.7656675
43.1737676 15.1190450 41.9425555
43.2318784 19.2372538 42.7032150
43.2074666 20.3907881 42.9429710
43.1752615 19.8218785 43.0037417
43.2188138 21.8838044 42.9371484
43.1273989 22.4532206 43.2524905
43.2824567 13.7946578 40.5886844
43.0809855 13.1676355 41.2376672
43.2673767 14.4467475 41.1503427
43.2334803 15.6448297 41.8662578
43.2351828 17.1452649 42.2591493
43.2058834 17.7218262 42.5116830
43.1699604 12.5039322 40.2602479
43.2838462 13.0211012 39.9835855
43.2970822 21.1536326 42.6315702
43.2590954 16.6229308 42.0266911
43.3504470 16.1929093 41.5187962
43.3001034 15.1182413 41.3675606
43.2936400 19.8545139 42.5693877
43.2696417 15.3837930 41.6396037
43.4389599 20.2418976 42.0148112
43.3230661 18.6557639 42.2728211
43.3275141 18.1087293 42.1454571
43.4222817 13.7780458 39.7230387
43.3883369 14.5465173 40.5422673
43.4592217 14.3863894 39.9751253
43.4262827 13.3199673 39.3337570
43.4055105 17.0823615 41.5578447
43.3910452 14.9839753 40.8152826
43.4129685 19.0707967 41.9951193
43.3802791 19.5823610 42.2015302
43.3325320 17.5747350 42.0013331
43.4186533 21.8963232 42.1580002
43.5138009 21.1408362 41.7498685
43.2845354 22.3126728 42.6906832
43.3299355 15.6104481 41.4367765
43.4466340 18.4818264 41.7517051
43.4466302 15.6715456 40.8627242
43.5481109 13.9008388 38.9985628
43.5282998 14.2608350 39.4280925
43.4515812 17.8482141 41.5849425
43.5133725 13.2361166 38.6960544
43.5566083 16.6338608 40.7213420
43.5203463 15.1440334 40.1439667
43.6026193 14.8246037 39.3847562
43.4887633 19.5192881 41.7510942
43.5684100 18.9727284 41.3183644
43.5591862 18.2691514 41.2218198
43.5980633 17.6155847 40.8709720
43.5585715 21.6668192 41.5748581
43.5353406 22.0030732 41.6726246
43.5072817 22.4977527 41.7676456
43.3711894 22.5109663 42.3462987
43.6236151 16.0210133 40.0800928
43.6068103 14.4329928 39.0402339
43.6132960 13.1475497 37.9413441
43.6662063 13.9049580 38.1733514
43.6618850 20.5494054 41.0673022
43.6092056 19.7475515 41.2473492
43.6599478 21.3444103 41.1123633
43.6690040 14.3975187 38.5726243
43.6289459 21.9751112 41.2476771
43.7017493 15.6145701 39.3279977
43.7036306 18.4684955 40.5946970
43.7190160 19.2988161 40.6789035
43.7043458 16.6720022 40.0050320
43.7158793 17.2358081 40.1985794
43.6568484 12.5133935 37.1169932
43.6983034 13.0477883 37.2293629
43.6836444 14.7998352 38.8104059
43.7082797 15.1766585 38.9507562
43.7778980 16.4392013 39.4294746
43.7477678 17.8408641 40.2421094
43.7801071 21.7347387 40.5153893
43.6925367 22.6520859 40.9109071
43.7523723 13.7389163 37.3773240
43.7495559 14.5125668 38.0784832
43.7558629 14.8578100 38.3338258
43.8092574 14.4345285 37.5348553
43.7390357 19.9331939 40.6662673
43.7469296 12.8443697 36.6359428
43.7704995 21.0386384 40.5774303
43.8490584 20.4325505 40.1356965
43.8384525 19.0473050 40.0352180
43.8596979 18.3035061 39.7854075
43.7922031 15.5380545 38.6505015
43.8675322 16.2115861 38.6525281
43.7551066 15.1359132 38.5839753
43.8159667 17.0817412 39.6038033
43.8288301 13.5760158 36.5791917
43.8328683 13.1650819 36.1516587
43.8254587 19.6725316 40.1999690
43.8423678 14.9949212 37.7837829
43.8328460 17.6319331 39.7563800
43.8307188 15.3361857 38.1864905
43.8806489 13.1618213 35.6621891
43.8660085 12.7767539 35.3520438
43.8647196 21.1728644 40.0838330
43.9249203 17.0873310 38.9045514
43.8804254 15.7955065 38.2124186
43.9122654 13.6439484 35.8316526
43.8873619 14.3531337 36.7846675
43.8997559 17.4809303 39.3261090
43.9575315 19.6941849 39.4678861
43.9412780 18.9038794 39.4589752
43.9524762 15.7320928 37.5764593
43.9459048 21.7382703 39.5854637
43.8484810 22.3018695 40.1456691
43.9268239 13.2259075 35.2216326
43.9464934 13.5537349 35.3674367
43.9189225 17.9027151 39.3748954
43.9989455 18.3982868 39.0113369
43.9561196 14.2649608 36.0064171
43.9523943 16.1912479 38.0091742
44.0232456 16.8585554 38.0278230
43.9483672 15.1376110 37.0176062
43.9436138 20.9752284 39.6284275
43.9798050 20.4918422 39.3987782
44.0130346 14.1511578 35.1923741
43.9707302 17.7372526 38.9840901
44.0318324 19.1241130 38.9707126
44.0289490 16.3823832 37.5787355
44.0756530 17.8514216 38.2880792
44.0245979 15.7366805 36.9538926
44.0986976 16.3350198 36.9167216
44.0474264 21.0931767 38.9509611
44.0637916 21.8145959 38.7715772
44.0315232 22.4698540 38.9871560
43.9359955 22.4595480 39.6492109
44.0151989 14.9947340 36.1929201
44.0862812 15.7721564 36.3528542
44.0733358 20.3062557 38.8066992
44.0857150 19.6420401 38.7038589
44.0615900 14.8823746 35.4490802
44.1529229 19.0241765 38.1820612
44.1052392 16.8132093 37.3658575
44.1205800 15.5813294 35.5885588
44.1362038 21.5275493 38.2388718
44.1334210 22.3033540 38.1189659
44.1747420 17.5000485 37.3583473
44.1516377 20.8535362 38.2392444
44.1713408 16.4039563 36.2247862
44.1853181 16.2469074 35.6810503
44.1771224 16.9968177 36.9238593
44.2116372 16.8687887 36.4128239
44.1868305 20.0897828 38.0588435
44.2270599 18.3963683 37.4887437
44.1983715 21.2915745 37.7737582
44.1963561 21.8376480 37.5932232
44.2735478 19.6694322 37.4573469
44.2752130 19.0651286 37.3946056
44.2404822 16.8035030 35.8395465
44.2348756 20.8111107 37.5967063
44.2602336 17.4619574 36.5400799
44.2874432 18.1225408 36.7795601
44.2477949 21.4147046 37.2017436
44.2385338 22.0396481 36.9268507
44.2006923 22.4650577 37.3106413
44.2776158 20.3129407 37.3621956
44.2727357 17.2030590 36.0677205
44.2840196 21.6091201 36.3994092
44.2523658 22.3450996 36.3157727
44.2308746 22.5616768 36.7456712
44.3213433 18.8273638 36.8387476
44.3374775 18.1962661 35.6406830
44.3598330 18.7800899 35.5443172
44.2931578 17.3104759 35.5579294
44.2974940 20.8557900 36.9074903
44.3213470 17.7638885 35.7163511
44.3194248 17.9533791 36.1578725
44.3037376 17.5471157 36.0114612
44.3392508 20.0929772 36.7203392
44.3316586 19.4124132 36.9292200
44.3082415 21.5183087 35.6021523
44.3445481 20.8185781 36.0917188
44.2676805 22.1868698 35.7135348
44.3446375 18.5559597 36.1963846
44.3519466 20.9885780 35.3733338
44.3808958 19.2978512 35.3740565
44.3838164 20.4465203 35.4997925
44.3807505 20.1258287 36.0077843
44.3709381 19.3774626 36.1500047
44.3939902 19.8373292 35.4754999
37.8978401 19.6981728 54.7094941
37.7615653 19.3360783 54.9972951
37.9981324 20.3283560 54.4495322
38.0635075 18.9843941 54.5274131
37.9799381 18.2256829 54.7945686
38.2127985 21.0262202 53.9986081
38.1074287 21.7659622 54.0779978
37.8702395 22.2702809 54.3954298
37.8706492 17.1262491 55.1858991
37.9576534 16.7333782 55.0907925
38.0541347 17.1255544 54.8471250
38.2593051 16.5424179 54.5519553
38.0710550 16.1881056 54.9650826
38.2868424 18.3714554 54.2217456
38.0974300 17.5836291 54.6903275
38.3197516 17.7969635 54.2445816
38.2704474 19.6036547 54.0786311
38.5338627 18.7778417 53.7181087
38.3401886 17.1551835 54.3040559
38.1840356 15.6467762 54.8265614
38.2866003 16.0087664 54.5801185
37.9191041 15.8161782 55.3040281
38.0311720 15.2002536 55.1788993
38.2055864 14.7144813 54.9064986
38.3328535 15.0874034 54.6056032
38.0144678 14.6834878 55.2815646
37.7829671 15.4956989 55.6035563
38.1737091 14.2227113 55.0318286
38.4575613 14.3937217 54.4384457
38.4071693 20.2380922 53.7649430
38.4313762 21.6289908 53.5643175
38.2499471 22.3102588 53.7722856
38.4063795 13.6047890 54.6422340
38.0445682 13.6431372 55.3638749
37.8947034 14.3175814 55.5596650
38.5319628 18.0736706 53.8139492
38.6752598 17.3719618 53.6314771
38.4382568 15.5917434 54.3339886
38.6215970 16.5096316 53.8475066
38.4614244 16.0792377 54.2259701
38.2719971 12.9140290 55.0069325
38.5267287 12.9956063 54.4727221
37.9883610 13.0772628 55.5551462
38.5469832 20.6407439 53.4826405
38.6127420 21.0816413 53.3258170
38.7162901 19.6003634 53.2977395
38.6592709 14.9884094 53.9504625
38.6749804 13.8260871 54.0507659
38.6785902 13.2666677 54.1103669
38.7342535 14.3255787 53.8670234
38.6843234 15.7425627 53.8155325
38.8388894 18.0497728 53.2430597
39.0213579 18.7651739 52.8303869
38.6894941 20.2390589 53.2805808
38.6032164 22.0694579 53.2246903
38.7849808 21.5412583 52.9898740
38.7203656 12.7355792 54.0822521
38.8040468 20.6286293 53.0437194
38.8689116 22.0116153 52.7886376
38.7374796 22.3533567 52.9582128
38.5269821 22.5949287 53.2742217
38.9262214 13.9063736 53.4905121
38.8420187 13.4660639 53.7251607
39.0068404 16.6533366 53.0607402
39.0581489 17.3617490 52.8936572
38.9479473 14.5125743 53.3833392
39.0030183 15.2641358 53.1951487
38.8780497 21.0427828 52.8788269
38.9041789 16.0165820 53.3345528
38.8934612 12.9875951 53.6543429
38.9626324 20.0987887 52.8125837
39.1168445 19.4912311 52.5894389
39.0359908 13.3447703 53.2880314
39.0061736 21.6878392 52.5989346
39.0527099 21.2892164 52.5551066
39.1169935 20.6844695 52.4841435
39.0995741 14.1269416 53.0804358
39.1472094 13.7371048 52.9985465
39.1103737 22.0003296 52.3651391
38.9407389 22.4196818 52.5950603
39.2064527 17.9469120 52.5565110
39.1592272 12.6875937 53.0340038
39.2584652 14.4577352 52.6920818
39.3169820 19.9608374 52.1778241
39.2469019 13.2795554 52.7891740
39.3386520 19.0545358 52.2171892
39.3891968 18.4391215 52.1706715
39.1911156 15.9063675 52.7470000
39.3594764 15.2173378 52.4276793
39.1755216 21.5879101 52.3062460
39.3113308 21.1882666 52.0882830
39.2160900 14.0170343 52.8210290
39.2117500 16.9273596 52.6299849
39.3738560 16.4744668 52.3307025
39.4019336 17.2177162 52.2268564
39.3572003 13.7439342 52.5001399
39.3341817 19.4754079 52.1910191
39.3534936 12.9194940 52.5409207
39.4262858 12.4810375 52.3615032
39.4683518 20.5890629 51.8403538
39.3558778 21.7470340 51.9425273
39.5219252 17.8467110 51.9550890
39.4261107 13.2420780 52.3527749
39.5565405 19.4004085 51.7735966
39.6042950 18.7622868 51.7329127
39.5072401 12.9071008 52.1588437
39.5376980 14.1127352 52.0618781
39.5389237 14.6651082 52.0469807
39.6451503 19.9959371 51.5527092
39.4881368 15.8094522 52.1251485
39.6568440 21.2113298 51.4240339
39.6344773 18.2621107 51.7106354
39.6633595 13.3611085 51.7640375
39.5624116 21.9349582 51.5244342
39.2797962 22.5150101 51.9692190
39.7103429 17.3509493 51.6023338
39.7214293 16.6159049 51.6021810
39.6669880 15.2022094 51.7490804
39.7804864 17.8660136 51.4409691
39.5833813 16.1912292 51.9103892
39.7415608 20.4938520 51.3253100
39.8271009 19.0259218 51.2740016
39.8133434 19.5422377 51.2621775
39.8674645 18.4029136 51.2340143
39.7425815 15.8687234 51.5759401
39.9112031 17.0795713 51.1967950
39.9164557 17.4855683 51.1754975
39.8648605 14.3401306 51.2933098
39.9559513 20.0012568 50.9416163
39.9872102 16.0822216 51.0430560
40.0475487 16.6728254 50.9123988
40.0676094 13.2944910 50.7636517
39.9622023 20.6781570 50.8779362
39.8208797 21.7867047 51.0524921
39.9971008 21.2559514 50.7629849
39.9971940 15.3219197 51.0126017
40.0200821 17.8582836 50.9458594
40.0375985 18.7632665 50.8646518
40.1501283 18.3031559 50.6510586
40.1520953 17.2813665 50.6786630
40.0657952 19.3064380 50.7697314
40.0796793 21.7524860 50.5574234
39.9254337 22.1567303 50.8141145
39.6815017 22.3883912 51.2446649
40.1816331 14.7211505 50.5747981
40.2565040 14.0572339 50.3574088
40.2179174 20.2849638 50.3903627
40.1796810 20.8345577 50.4343584
40.1879027 15.7703459 50.5993664
40.2177647 16.2572153 50.5419038
40.2204059 19.7344217 50.4208617
40.3403789 15.2840111 50.2379909
40.2756259 12.7274953 50.1960069
40.4492244 13.3332815 49.8218574
40.2591527 21.2733969 50.2424724
40.2853154 16.7351738 50.3958799
40.2386077 17.8281404 50.4781976
40.2610824 18.8003425 50.3897928
40.3206311 19.3127450 50.2358712
40.3482839 21.8428541 50.0150658
40.1050039 22.1916810 50.4640527
40.3907001 15.9191098 50.1492321
40.4038914 17.5197218 50.1238182
40.3804407 17.0878433 50.1843505
40.4431783 20.6953920 49.9020182
40.4004827 16.3772535 50.1379929
40.4430181 14.6168079 49.9602444
40.5245386 19.7922904 49.7684963
40.4574908 18.1888156 49.9844104
40.4850394 21.2698597 49.7841984
40.5252762 14.0564358 49.7160032
40.5045412 16.7481899 49.9059036
40.5146107 18.9555380 49.8298183
40.5927338 15.6032341 49.6774577
40.5809730 15.0557160 49.6732183
40.5976176 16.2376743 49.6850424
40.7028496 21.5627588 49.3095219
40.5514054 22.3038066 49.5663211
40.2318947 22.5493647 50.1770750
40.5478403 17.1649307 49.8069488
40.7579057 20.4503685 49.2426530
40.6551212 20.9878255 49.4459979
40.6358019 17.5782833 49.6006832
40.7660045 14.5459399 49.1852574
40.7708921 13.0683845 48.9784069
40.7053232 13.7465736 49.2422059
40.7887250 19.1383120 49.2140129
40.9175046 19.7870247 48.9077605
40.7231376 18.5150970 49.3826382
40.7167263 18.0257503 49.4115166
40.8056080 16.8980397 49.2104441
40.8821665 15.8934854 49.0107723
40.7538600 15.2514689 49.2819995
40.8714041 20.9763665 48.9820614
40.8719294 17.6786054 49.0585268
41.0058163 13.7550468 48.4928973
41.1226824 20.4776861 48.4404527
40.9376323 15.1790110 48.8373637
40.8840440 18.1722529 49.0252152
40.9660600 18.6164398 48.8251895
41.1046706 21.4160345 48.4616235
40.8821926 22.1594293 48.8993749
41.0761386 19.1713776 48.5637598
41.1609709 14.7428289 48.2431874
41.0265774 12.9654156 48.3039990
41.0517268 16.4774600 48.6307256
41.0445146 17.3706673 48.6527644
41.0980545 16.9361383 48.5249422
41.2271805 19.6983553 48.2105650
41.1133170 15.4774347 48.4369956
41.1876626 16.0353538 48.2918806
41.1315113 18.0250332 48.4428331
41.1831848 18.6762810 48.3170487
41.2612446 13.2635813 47.7571636
41.3309671 13.9966309 47.7141887
41.3610563 19.1128515 47.8959121
41.5149219 20.9623426 47.5686528
41.4506756 20.0635046 47.6982966
41.3054451 17.3084773 48.0229296
41.2726775 16.6168939 48.1026098
41.3848311 15.5384354 47.7767438
41.3764641 18.4527487 47.8552356
41.4049141 17.9126877 47.7823094
41.3843170 21.6221381 47.8586927
41.2332937 22.1715495 48.1641814
41.4262936 19.5785947 47.7477051
41.5696315 14.7254309 47.2250171
41.3738228 12.8647154 47.3682843
41.4033122 16.1937494 47.7727652
41.4339267 13.5727488 47.3740734
41.4448343 13.2067809 47.2623333
41.5697880 16.7232789 47.3653190
41.6628793 19.4383822 47.1824072
41.5690057 18.7697839 47.3902784
41.5380299 13.9468219 47.1726283
41.6004658 17.5530855 47.2916514
41.7426303 20.2261806 47.0325686
41.5591076 12.8902216 46.8549468
41.5835977 16.0271712 47.3198928
41.6524895 15.5462874 47.1231714
41.5750183 21.6135215 47.4447943
41.4762646 21.9662115 47.6553179
41.6000299 18.2095692 47.3026522
41.5812284 13.4787112 46.9547361
41.7869501 21.4650948 46.9709113
41.9262461 20.8334085 46.6346070
41.6931994 22.0726300 47.1747443
41.4774381 22.3768763 47.6382636
41.7607762 13.9865577 46.5805195
41.8871269 16.0992369 46.5561934
41.9064835 17.2135085 46.5005413
41.7342633 13.3146159 46.4774445
41.7961366 12.7738127 46.1202115
41.8071188 15.3027549 46.7201956
41.8853052 14.7562744 46.4291051
41.8376215 18.6264403 46.7144735
41.9053957 19.8172461 46.6227196
42.0002528 19.3038508 46.3470630
41.8005101 17.9257412 46.7878357
41.9811569 20.2447716 46.4725383
41.9582464 13.5097364 45.8783247
42.0276225 14.2717920 45.9093302
41.9284776 21.8863226 46.6466583
41.9204570 22.4220362 46.6450788
41.6554734 22.8243247 47.2273789
41.8991260 12.4950232 45.7012616
41.9981219 15.3635982 46.2427586
42.0531221 21.4531627 46.3567302
42.1330854 19.8694505 46.0630991
42.0464240 18.0068742 46.1410657
42.1710275 18.7088773 45.8535105
42.1021730 14.9438279 45.8742715
42.1354100 16.6886486 45.8787046
42.1144813 15.7259218 45.9542237
42.1360061 16.1742494 45.8954424
42.1856493 20.4820931 45.9863879
42.1842709 21.0288148 46.0301116
42.1500839 13.9543740 45.4486459
42.2816835 19.3458050 45.6249267
42.1597622 22.0556669 46.0845120
42.1259999 15.3521458 45.8984002
42.2964059 21.4955322 45.7565822
42.2349945 15.9224086 45.5923155
42.2709845 16.3429696 45.4756580
42.3277728 18.9356729 45.4562120
42.3958413 21.9841469 45.4868525
42.4747132 22.2819708 45.2592522
42.3537083 22.4613175 45.5677137
37.7802923 13.4487776 55.9086017
37.7861522 12.8719835 55.9799448
37.7749801 13.9453029 55.8430776
37.9204042 31.3099287 -40.7155491
37.8289744 26.6113486 -42.1429463
38.0351804 27.0098262 -41.7660289
37.8821157 29.0703084 -41.4627567
37.9425101 29.8074000 -41.1856659
37.8830954 30.7490770 -40.9695357
38.0293243 31.9642164 -40.3340496
37.8571190 25.0731912 -42.5149575
37.9933342 28.0093066 -41.5715575
38.1105244 28.4330323 -41.3145609
37.8524251 30.3450786 -41.1477275
37.9144438 24.0793899 -42.6594764
38.1543785 27.5511257 -41.4718240
38.1317474 23.6430224 -42.4571745
38.0529426 23.2572034 -42.6373892
38.1648391 26.3735764 -41.7641364
38.2027552 24.0799915 -42.2726311
38.0947255 25.0005331 -42.2137044
38.3232459 24.4933926 -42.0204215
38.2117368 30.3450637 -40.6450145
38.1692499 22.8211302 -42.5643362
38.1906852 25.4353974 -41.9750698
38.2982716 27.9487800 -41.1832444
38.0883664 30.8177359 -40.6588539
38.3147486 25.8515067 -41.7013653
38.3389667 28.8333017 -40.9099199
38.2285304 29.3303244 -40.9329981
38.4279341 23.1086910 -42.1613716
38.3671597 31.4458311 -40.0353260
38.4130068 32.0244953 -39.7690423
38.1128602 32.5134136 -40.0342681
38.4751372 28.2969680 -40.8589132
38.4760946 27.5142565 -41.0530791
38.5600775 27.8703887 -40.8506580
38.3761451 29.7198202 -40.6170227
38.3689217 27.1418784 -41.2908271
38.4710953 26.6133063 -41.2903801
38.3200236 30.8841560 -40.3031260
38.4337232 23.6439109 -42.0505069
38.4567976 24.9258541 -41.7407341
38.5226198 23.9896141 -41.8590531
38.4670123 26.1381380 -41.4211899
38.6192799 30.4377899 -40.0291644
38.5663360 30.0133582 -40.2547382
38.5522135 29.2141233 -40.5166335
38.5673530 25.3794659 -41.4805785
38.8095602 31.5474011 -39.3533446
38.7212783 32.2309546 -39.2513797
38.4294353 32.4548334 -39.6031141
38.7711152 24.3293066 -41.4486714
38.6937819 30.9595894 -39.7334583
38.6260636 25.7671829 -41.3025096
38.6997275 27.0257778 -40.8748686
38.7087092 29.5963529 -40.1832648
38.8738848 23.4147143 -41.4952412
38.7403443 28.6350511 -40.4064953
38.8004519 22.7218233 -41.7257436
38.7485139 26.0973647 -41.0489812
38.8004594 26.5210345 -40.8679806
38.7786850 24.9300878 -41.3026549
38.7657061 27.5452342 -40.6522714
38.8891250 29.9471840 -39.8025438
39.0199497 25.3875665 -40.8602916
38.7751237 28.0389227 -40.5138545
39.0115194 30.4619893 -39.4383147
38.8771035 29.1390233 -40.0735959
39.1821451 31.9595933 -38.6577509
38.9017761 32.7375643 -38.8132297
38.5819748 32.6686166 -39.3118262
38.9613062 29.4997543 -39.8428701
39.0179716 30.9757926 -39.2439179
38.9788300 26.7062169 -40.5742228
39.0247256 27.1458235 -40.3955765
39.0964858 26.1723399 -40.5498445
39.0674248 24.6443972 -40.9769975
39.3615551 23.9242669 -40.7342426
39.0422828 28.1955004 -40.0973000
39.0857980 28.6869965 -39.8982912
39.1724780 22.6326752 -41.2306748
39.2615683 31.2362500 -38.7840979
39.0469544 27.6722759 -40.2290449
39.1283445 29.6163447 -39.5540111
39.2085686 29.9475249 -39.3196754
39.4819044 22.9885355 -40.7424010
39.1911343 29.1503705 -39.6040268
39.3074080 30.6676142 -38.9128737
39.3970050 24.6635303 -40.5279361
39.3642522 25.6928690 -40.3052941
39.5179987 25.1711011 -40.2333476
39.3106863 28.2704979 -39.6858826
39.3349193 28.6810845 -39.5296104
39.2762311 27.8421938 -39.8555659
39.2656960 26.6731046 -40.1803516
39.3243954 30.2527305 -39.0358791
39.3807814 27.2544660 -39.8605876
39.4891873 26.1424724 -40.0061086
39.3829532 29.4785015 -39.2057113
39.5027176 29.8603028 -38.8919339
39.5547710 28.8749579 -39.1304120
39.6165960 26.6239680 -39.6911167
39.6007039 31.4677693 -38.1900035
39.5400412 31.9562852 -38.1220356
39.4291617 32.5383618 -38.0938053
39.5879298 27.8014876 -39.4029766
39.5797417 30.2761327 -38.6283435
39.6434143 30.7901260 -38.3507498
39.5242199 28.3796564 -39.3315665
39.6574773 24.2342651 -40.2773134
39.8150831 23.3085174 -40.2251929
39.8068391 23.8196235 -40.1507579
39.7040583 29.3469895 -38.7433842
39.6934673 25.6041735 -39.8671888
39.8936197 26.0981638 -39.4358262
39.7491716 24.6334579 -40.0565900
39.8320779 27.0178691 -39.2623246
39.8817509 25.0653662 -39.7536159
39.8533307 22.7968246 -40.2577594
39.8264937 28.2339528 -38.9076620
39.9135090 28.7866611 -38.5940112
39.8062952 29.7901500 -38.4321101
39.7140756 31.7562297 -37.9242301
39.7671238 32.0534781 -37.7474464
39.9113782 31.0226753 -37.8561243
39.9435051 31.5403827 -37.6396030
39.8317091 26.5631620 -39.3955261
39.9538800 27.5855474 -38.9099419
39.9615057 24.1347402 -39.8732200
39.8818478 30.2425902 -38.1600671
40.0594734 29.2309411 -38.2127911
40.0124528 25.4747607 -39.4456685
40.0772840 24.5513860 -39.6125503
39.9545953 30.6011308 -37.9287191
40.1029624 27.8780553 -38.5884047
40.1448011 28.2885805 -38.3886881
40.2194113 23.4935042 -39.6041200
40.1368290 22.8218064 -39.8366973
40.1071012 29.7609791 -37.9596837
40.2459390 24.9844640 -39.2487086
40.1925072 31.0338996 -37.4085717
40.1284136 30.6883100 -37.6219898
39.9804339 26.5165195 -39.1885638
40.1282869 27.1249749 -38.7834124
40.1690677 26.6739596 -38.8575941
40.3147973 31.4430781 -37.0870791
40.0975831 31.9906361 -37.2654572
40.3488092 25.6353039 -38.8962626
40.1706547 26.2348223 -38.9858522
40.2426533 27.4484586 -38.5068879
40.1909314 28.6997464 -38.1790251
40.1964560 30.2195419 -37.6641266
40.2467102 24.0891110 -39.4657403
40.3828025 24.4324207 -39.1883180
