# 3D Systems, Inc.
# New Model
43.7957086 -51.3686165 -46.3786311
44.0588892 -52.7084246 -45.8952822
43.9452156 -52.0001911 -46.1560600
44.0244563 -49.5090708 -46.0418798
44.0888368 -50.7923327 -46.1460240
44.3651043 -50.1634218 -45.8519980
44.1435054 -53.3128195 -45.6537716
44.1906340 -48.8575324 -45.6652492
44.7602868 -49.5033413 -45.3484692
44.3549566 -51.4109358 -45.8831489
44.5347317 -52.1135479 -45.6161574
44.3237349 -47.2517982 -44.3044752
44.2550406 -48.1966287 -45.2439040
44.6638763 -50.7811494 -45.6302762
44.6523018 -52.9308356 -45.3152321
44.0381505 -47.6866886 -45.0972132
44.4330201 -47.7067269 -44.6777157
44.8905043 -50.2296276 -45.3842394
44.6689539 -48.7742387 -45.1590233
44.6205363 -47.5029610 -44.2960300
45.0069793 -51.4212921 -45.2761948
45.0724773 -52.2031859 -45.0920351
44.9073724 -48.3243465 -44.6537286
44.9022949 -47.7766283 -44.2412756
44.7212979 -47.0088534 -43.5019992
45.1830104 -50.6889671 -45.1450050
45.3917980 -50.0349030 -44.8569693
45.1477505 -49.0232632 -44.8002517
45.2542230 -49.4850613 -44.8754355
45.4292335 -52.8608374 -44.5761010
45.6295423 -51.6933911 -44.6133688
45.4712622 -51.0659628 -44.8582768
45.2921987 -48.1480174 -44.1218391
45.5291569 -48.6909971 -44.2228839
45.6383489 -49.3995175 -44.4252938
45.7196720 -48.2675284 -43.6973237
45.7216688 -47.7984287 -43.2595536
45.4435199 -47.4751182 -43.2668366
45.5604829 -50.6180078 -44.7716340
46.1827442 -53.0095994 -43.7572487
46.2405719 -52.0388149 -43.9032242
46.0108668 -53.7913814 -43.7283590
45.7833298 -50.3968522 -44.5100144
45.9162518 -49.9866903 -44.2753844
45.8772406 -50.9119630 -44.4232076
46.1531207 -51.3586178 -44.0911725
45.9737405 -49.0432158 -43.8905433
45.8572321 -48.6664064 -43.8381992
46.0981987 -49.5603271 -43.9376347
46.3720933 -53.4917861 -43.4295200
46.2769233 -54.0642552 -43.3654860
46.1200476 -48.6771539 -43.4813090
46.0958295 -48.2081734 -43.1575887
46.0788235 -50.4401289 -44.1659093
46.7619114 -52.3014702 -43.2715379
46.8279533 -53.0073307 -43.0274680
46.4553796 -49.2843874 -43.3433801
46.3990495 -50.1003973 -43.6890535
46.3314876 -50.8083105 -43.8846350
46.5754196 -51.3313301 -43.6003394
46.7663258 -51.7602526 -43.3547050
46.7919819 -50.7003292 -43.2927273
46.9926931 -49.9322750 -42.8583473
36.2788923 -28.1007886 -54.2339459
36.3418460 -27.6115984 -54.3854125
36.0304900 -29.9619883 -53.5195209
36.2020396 -28.6457147 -54.0563464
36.0982455 -37.2703113 -49.9407202
36.5503058 -32.3766507 -51.7746285
36.3490507 -36.1698084 -50.2181314
36.5752466 -34.0525396 -50.9060137
36.4788212 -38.3827351 -49.1191335
36.3460034 -38.1413847 -49.3437275
36.3790356 -29.0876329 -53.7142865
36.4383273 -36.7495455 -49.8963818
36.4397950 -29.6540372 -53.3789583
36.5869254 -31.7862257 -52.0803332
36.7519259 -34.7813182 -50.4456349
36.6386287 -37.2700952 -49.4849458
36.8788838 -39.1748734 -48.3918749
36.5742557 -38.7691632 -48.8566644
36.9754769 -38.2895283 -48.7071425
36.6201177 -37.9085839 -49.2025390
37.0091461 -35.5986431 -49.8844907
36.7707312 -36.3089219 -49.8051979
36.7242284 -28.5195280 -53.7254177
36.9899869 -30.5446293 -52.4896309
36.9969532 -31.3492715 -52.0255901
36.9101837 -31.0033951 -52.2891060
36.9572863 -27.7285092 -53.9020561
36.9449593 -29.8286863 -52.9136769
36.9460583 -32.6377414 -51.3221994
37.0242223 -33.4763341 -50.8142225
36.9879380 -33.0421180 -51.0632657
37.1754952 -31.9847763 -51.5216887
36.8361846 -26.1476003 -54.5661822
37.4773517 -26.8425941 -53.9029166
36.9255506 -29.1390885 -53.2832853
36.8416607 -36.7055126 -49.5721847
37.2082815 -34.0898857 -50.3798984
37.1088311 -37.5090726 -48.9496030
37.0860882 -39.5740047 -47.9995720
37.3813324 -34.7334184 -49.9377884
37.2677594 -32.7808075 -50.9910844
37.2967310 -32.4372873 -51.1656739
37.5179611 -28.4662992 -53.1868152
37.1709689 -36.3141745 -49.4442470
37.1437632 -36.8851610 -49.2141843
37.5109576 -29.9470294 -52.4412692
37.4955796 -29.2895753 -52.7988486
37.2932889 -33.1116021 -50.7864766
37.7349257 -25.8899909 -54.0581308
36.3825932 -25.5996082 -55.0315790
37.0111875 -25.3528971 -54.6775125
37.4671184 -38.5881402 -48.1175445
37.7019905 -37.6933366 -48.3206697
37.2363813 -30.9230853 -52.0937927
37.6721993 -31.1922114 -51.6119711
37.3972766 -39.2799117 -47.8500500
37.8373750 -39.4974761 -47.3548211
37.7069637 -35.1253040 -49.4765677
37.7161019 -35.8881541 -49.1284542
37.6702175 -33.3476476 -50.3722988
37.8500596 -34.1424644 -49.8206392
37.8978178 -27.5982264 -53.3222444
37.6232229 -30.5131879 -52.0435087
37.5436023 -32.2248228 -51.0997511
37.8515087 -31.8517312 -51.0854237
37.7642661 -34.6593186 -49.6406406
37.5331752 -32.8962393 -50.7222898
37.5599153 -32.5530656 -50.8963540
37.5045203 -36.5155786 -49.0476191
37.5562869 -37.0148346 -48.7709604
37.9839204 -39.7431813 -47.0876470
37.8883630 -38.8454683 -47.6143584
37.9640274 -38.2472314 -47.8255339
38.0224995 -29.4672400 -52.3370020
37.9959531 -30.0131496 -52.0561673
37.8448479 -32.2909094 -50.8300141
37.8810130 -32.6838680 -50.5744703
38.2842645 -26.9762557 -53.3371940
38.1480046 -26.4806431 -53.6112115
38.0380936 -28.8673192 -52.6356474
38.5312401 -28.1111281 -52.6691824
37.9164480 -36.5016013 -48.6709736
38.1229147 -34.6380547 -49.3396074
38.2509679 -35.2407843 -48.9413626
38.4419598 -35.9520465 -48.4383963
38.3472405 -30.4363128 -51.5545085
38.4880342 -31.2732644 -50.9487204
38.2645577 -39.5607539 -46.9366014
38.2920615 -39.0443988 -47.1628532
37.9427820 -37.0119438 -48.4144613
38.3900292 -37.6968831 -47.6979204
38.2074304 -37.2055508 -48.0842777
38.2982865 -33.4933214 -49.7828685
38.5107622 -34.0351239 -49.3079498
38.2907428 -32.8740999 -50.1413010
38.3954272 -32.1366191 -50.4970551
38.3787118 -38.4178981 -47.3789535
38.5491811 -27.4024680 -52.9847890
38.4883471 -29.6787750 -51.8903472
38.6180542 -28.9731268 -52.1841832
38.3236632 -36.6666317 -48.2217558
38.6617295 -34.6327722 -48.8662273
38.5824516 -39.2198563 -46.8269214
38.6335365 -39.5371243 -46.6311872
38.8082117 -38.7268588 -46.8674153
38.7447141 -33.0493227 -49.6692322
38.7323350 -33.5119292 -49.4075865
38.9378741 -37.9490145 -47.1017063
38.5902114 -26.5574250 -53.3107519
38.5538079 -26.0064714 -53.5177924
38.7606472 -32.5325690 -49.9673970
38.9359482 -26.8403366 -52.9692583
39.0287004 -29.8309047 -51.4108725
39.1511656 -30.5345245 -50.8966371
38.7527682 -36.3817289 -47.9585454
38.8583876 -35.2148600 -48.4043099
39.2737947 -35.8050689 -47.7531962
38.6732556 -36.9768366 -47.7640294
38.9300808 -33.7252058 -49.1177291
38.9933847 -34.1108367 -48.8473363
38.8657153 -37.3997875 -47.4050790
39.1868725 -33.2605951 -49.1799563
39.2055288 -32.6260068 -49.5558009
38.8826169 -31.6049978 -50.4449867
39.1685590 -31.9798626 -49.9893948
38.9373377 -29.3295234 -51.7707728
39.1797535 -28.4017175 -52.0922244
39.0307009 -27.3934696 -52.6651070
39.3758714 -27.7092401 -52.2843860
39.1222984 -31.1520528 -50.5417548
38.9189199 -39.2307639 -46.5367176
39.1501002 -28.9175678 -51.8490821
39.2457098 -34.5740095 -48.3783074
39.0481129 -36.5314111 -47.6221368
39.1182415 -36.9792245 -47.3600961
38.9173366 -26.3390671 -53.1843416
39.2471999 -38.8728790 -46.4353114
39.3088683 -38.3444615 -46.6161184
39.2361544 -33.7131023 -48.8635041
39.2905064 -39.3135548 -46.1865515
39.2847545 -35.1100601 -48.0680987
39.2375439 -31.4859413 -50.2462871
39.4301862 -29.2335358 -51.4682680
39.8415141 -29.7648720 -50.8421212
39.3887460 -33.9968204 -48.5730506
39.2052270 -37.4039598 -47.0989794
39.3493213 -26.2310021 -52.9204756
39.7040509 -26.8300939 -52.4240360
39.0529670 -25.9386431 -53.2292277
39.7734120 -34.8737463 -47.7618761
39.7840254 -34.1148563 -48.1696539
39.6076553 -37.6516804 -46.6340557
39.5527668 -38.6082977 -46.2996215
39.6942310 -38.2358134 -46.3291034
39.4194201 -36.5321636 -47.2837538
39.6152437 -28.6390837 -51.6645536
39.6957472 -33.4812924 -48.6251228
39.7724658 -32.7223763 -49.0413085
39.4725315 -30.8350064 -50.4716411
39.7679284 -30.4492190 -50.4828729
39.8348495 -36.1779705 -47.0704846
40.0562771 -35.5081931 -47.1973270
39.7974402 -28.0341804 -51.8375188
39.5018011 -31.1824754 -50.2343401
39.4922681 -37.0437801 -46.9922833
39.6012925 -38.9828198 -46.0822918
39.6007374 -32.2152711 -49.4992696
39.5040289 -31.5223932 -50.0177853
39.7559255 -31.7238159 -49.6924184
39.6245234 -39.3932387 -45.8620079
39.7470854 -36.6713777 -46.9190516
40.0524251 -28.9180633 -51.1827208
39.9930254 -25.7220566 -52.6036881
39.3960103 -25.6357994 -53.0783609
39.9735905 -27.4427738 -51.9800372
39.8518555 -37.0323248 -46.6661677
39.8203693 -30.8623239 -50.1908027
40.1197299 -28.3289813 -51.4538623
39.8436338 -31.2580615 -49.9229580
39.9782471 -39.0947163 -45.6855036
39.8986861 -38.5692157 -46.0005775
40.2996093 -34.2330001 -47.6626009
40.5026637 -34.8179154 -47.1564792
40.7159738 -29.1664544 -50.5301654
40.1508436 -30.1592946 -50.3691472
40.4650345 -29.8334360 -50.3280610
40.3314531 -33.5574932 -48.0585545
40.1351899 -36.5856104 -46.6034673
40.1910059 -33.0149680 -48.5192835
40.4332094 -26.9556865 -51.8429168
40.4382944 -26.2929071 -52.0843416
40.4192805 -39.2318107 -45.2185087
40.0893651 -37.9821174 -46.0617431
40.2745157 -37.2197665 -46.1951941
40.0978103 -32.0331380 -49.2252037
40.5185372 -27.6762396 -51.4696650
40.6406447 -28.3837151 -51.0266759
40.1742272 -30.5421781 -50.1159802
40.3787941 -35.9707475 -46.6720946
40.3110199 -31.3512757 -49.4979173
40.4376611 -32.4321575 -48.6997254
40.4523015 -38.4751335 -45.5102436
40.5928157 -37.7328284 -45.6789359
40.7259092 -36.4510044 -46.1101197
40.9169048 -37.1201374 -45.6222221
40.5753180 -35.4077369 -46.7740037
40.1584692 -30.9286248 -49.8884618
40.6945683 -33.8322036 -47.5760140
40.7477729 -34.2247188 -47.2875647
40.5094475 -30.2102342 -50.0633046
40.7103710 -31.7637660 -48.9193052
40.7254957 -32.8826755 -48.1755808
40.6410471 -30.6473598 -49.6890582
40.9478024 -35.6988311 -46.2831818
40.9450643 -33.3469100 -47.6904660
41.1329642 -32.1760811 -48.3158976
41.2234068 -37.8743261 -45.0039990
40.9711227 -31.1066676 -49.1418354
41.0065278 -35.0592509 -46.5819724
41.0942733 -34.4460681 -46.8666926
40.9940816 -26.4580064 -51.6120121
41.0106964 -25.5107582 -51.9072488
40.9344062 -38.8237499 -44.9064709
40.7824181 -39.3564105 -44.8373035
41.1193669 -29.8727918 -49.8008132
41.1786847 -33.8044390 -47.1948460
41.3222685 -32.7678807 -47.7686860
41.4260216 -33.2355350 -47.3687910
40.9079827 -27.0459503 -51.4544062
41.1998667 -36.5469493 -45.6063747
41.4886139 -36.9175822 -45.1581255
41.0572961 -27.8811492 -50.9670489
41.2016660 -27.3501314 -51.1037856
41.4181575 -28.3388570 -50.4489578
41.2405357 -36.0404141 -45.8178334
41.5201746 -29.0643983 -49.9674492
41.3153917 -31.4847156 -48.6290865
41.2461199 -30.5246729 -49.3012778
41.5198281 -34.6942991 -46.3358797
41.4051302 -35.2931805 -46.0799858
41.6165814 -34.0763181 -46.6457978
41.3071141 -35.6734656 -45.9519997
41.7578183 -33.4672965 -46.9339527
41.1478393 -39.2690375 -44.5249304
41.6055322 -30.8713615 -48.8039516
41.3481146 -26.8078521 -51.2165874
41.5242575 -27.6595652 -50.7133491
41.6428857 -35.6676467 -45.6362031
41.7581350 -26.1600874 -51.1421375
41.7792462 -32.1747586 -47.8033610
41.9362448 -32.7888578 -47.2547077
41.6493975 -31.7256451 -48.2090414
41.8969989 -30.1318951 -49.0472019
41.9735610 -29.4179823 -49.4164191
41.6373201 -36.2248719 -45.3467481
41.5379591 -38.7225263 -44.3430990
41.9106446 -37.2467786 -44.5882604
41.9540890 -37.9579291 -44.2256406
41.8281928 -31.2654451 -48.3753793
41.4604433 -39.3368229 -44.1812091
42.0219488 -34.9722207 -45.7028337
41.9954620 -34.3204141 -46.1466201
42.1791039 -33.7217785 -46.4004427
41.8368354 -27.0377286 -50.7479943
41.8396220 -35.8790010 -45.3293957
42.0807265 -35.6102362 -45.2578552
42.1192907 -27.6841726 -50.2369404
42.3852541 -28.5304058 -49.5939963
42.0502275 -36.5138166 -44.8064953
42.3803553 -30.7190530 -48.3053438
42.2383882 -33.1694297 -46.7370041
42.0128740 -36.0254347 -45.0959988
42.1973802 -31.5261185 -47.9144938
42.4474105 -32.0611335 -47.3507978
41.7803265 -39.1838625 -43.9030044
42.2118083 -38.6163369 -43.6725318
42.4096994 -26.5077781 -50.5323634
42.4753428 -27.0813927 -50.2438694
42.3442759 -34.3976766 -45.7865447
42.5403230 -35.2292396 -45.0685844
42.7158773 -34.5683768 -45.3431979
42.3510373 -34.0504460 -46.0200198
42.5530151 -25.8060116 -50.6858118
42.0963578 -24.9989703 -51.2680002
42.4186066 -37.3740830 -44.0144576
42.3305444 -36.8676074 -44.3508029
42.0923829 -39.3982790 -43.4772111
41.9979692 -39.9683714 -43.3381535
42.4066968 -37.9359536 -43.7587723
42.4582660 -35.9013639 -44.7426401
42.5237119 -36.4301614 -44.3868935
42.5777771 -33.7393135 -46.0406467
42.6711477 -34.0686031 -45.7258448
42.5986759 -32.6410383 -46.8152165
42.7341685 -33.2234763 -46.2777875
42.2912017 -29.6647735 -49.0322895
42.6608622 -29.8635848 -48.6277938
43.1103185 -31.2073696 -47.4278815
43.0814736 -27.4370518 -49.6154726
42.6262282 -29.2522199 -49.0148515
42.7545123 -36.7868468 -43.9756885
43.3615595 -30.1695392 -47.9092337
42.9201014 -26.7188232 -50.0691012
43.0807248 -32.0225134 -46.8760431
43.0381596 -28.7918597 -48.9592254
43.2997718 -28.2516107 -49.0445457
42.9702848 -33.6259939 -45.7781740
43.0868380 -34.0225622 -45.3868322
42.8913645 -26.2200739 -50.2941199
43.0030562 -34.9053927 -44.8497683
42.9914258 -35.4186036 -44.5315950
43.1835353 -32.5716697 -46.3829786
43.4322432 -33.0801234 -45.7805470
43.3585532 -34.3774445 -44.8838510
43.0377312 -36.0979326 -44.0835916
43.3550626 -36.7516838 -43.3962084
42.8680778 -37.2133590 -43.6392538
43.3925763 -29.2497575 -48.4312549
43.6463915 -31.5777063 -46.7633829
43.5284488 -32.0740938 -46.4817844
43.3457643 -33.6106457 -45.4546213
43.8007824 -30.5764545 -47.3345630
43.9578146 -31.0078897 -46.9320975
43.2454757 -26.3251290 -49.9968827
43.3935635 -26.7039258 -49.7254208
43.3032103 -25.7136766 -50.1848161
43.4809402 -33.8748544 -45.1352857
43.4366129 -34.9266082 -44.4309562
43.4970371 -35.4514681 -44.0290608
44.0276414 -27.7179796 -48.7553850
44.0041944 -26.7715845 -49.2324904
43.4681922 -28.6740214 -48.6964323
43.7803641 -33.4391072 -45.1898836
43.6885841 -35.9482057 -43.5277149
43.7804088 -32.3786139 -46.0333750
44.3051942 -32.6839909 -45.3197248
43.8500643 -33.9159481 -44.7608046
43.9578220 -34.4188511 -44.2824997
43.6877795 -26.2284968 -49.7129671
43.9793505 -29.5501016 -47.8141718
44.1690572 -30.0215110 -47.3994650
43.7738001 -28.3493605 -48.6339815
43.8235104 -34.9841788 -44.0127328
43.8109972 -28.7244562 -48.4065376
44.1555232 -28.9739985 -48.0029695
44.0114290 -35.3334099 -43.5920320
43.9758636 -31.8316668 -46.3117138
44.3323404 -33.4352478 -44.6755402
44.2139842 -31.3539654 -46.4872196
44.2077443 -33.9405052 -44.3983898
44.2979187 -32.0383310 -45.8735973
44.2372449 -34.7841904 -43.7386595
44.2303941 -26.0438193 -49.3929870
43.8961610 -25.7557109 -49.7530699
44.2353263 -28.3739492 -48.2629463
44.3025455 -34.1191404 -44.1646352
44.4638990 -34.2936888 -43.8729301
44.3516597 -30.4796770 -46.9817594
44.7823629 -29.3405186 -47.3108813
44.3858281 -31.6216797 -46.1427718
44.5540138 -30.8756027 -46.5519242
44.8476747 -26.9601010 -48.4978519
44.7131321 -26.2685250 -48.9293747
44.8007956 -32.9117700 -44.6551591
44.6443036 -32.0795365 -45.5303267
44.8877327 -32.2245657 -45.1709516
44.8557250 -32.5457789 -44.9186005
44.6082056 -33.8057019 -44.1095084
44.9120477 -27.8669875 -47.9932465
44.8370166 -33.3081521 -44.2874394
44.6705669 -30.0203152 -47.0148101
44.6955897 -28.6110677 -47.7772728
44.7261147 -25.6494358 -49.1857305
44.2874394 -25.5331248 -49.5546460
44.7049998 -31.6787474 -45.8139256
44.7010174 -31.2659517 -46.1429469
45.0412333 -34.0382308 -43.4933677
44.6710102 -34.5749334 -43.4591323
44.8683612 -30.3842463 -46.6220863
45.0301282 -31.7887515 -45.4132557
45.1036394 -33.4821157 -43.8786708
45.1201834 -29.8827793 -46.7219837
45.1398715 -30.7794865 -46.0992008
45.3643091 -28.5101868 -47.2992398
45.1325700 -31.3236043 -45.6949025
45.1470241 -32.5812325 -44.6015038
45.3651212 -32.8839533 -44.1192389
45.1590680 -32.3071331 -44.8313206
45.3696139 -29.4676069 -46.7589833
45.4389900 -29.0618017 -46.9388030
45.2028140 -26.3301600 -48.5295951
45.2184454 -25.8281399 -48.7427264
45.4452075 -27.1945540 -47.9181297
45.7332171 -27.7064256 -47.4265032
45.3401320 -31.9329239 -44.9773334
45.2957824 -30.2588902 -46.3252813
45.5861501 -26.5577380 -48.1242426
45.6803888 -33.3607420 -43.3885753
45.4390161 -31.5023027 -45.2447906
45.5657616 -32.2369300 -44.4801524
45.7172245 -30.9276022 -45.4196408
45.6803106 -29.8260916 -46.2512523
45.6263125 -30.3934924 -45.9131226
45.6135198 -26.0258242 -48.3550578
45.8460413 -32.4326791 -44.0219678
45.9515825 -32.7346921 -43.6481759
45.9304824 -31.5296240 -44.7150581
45.8538942 -28.7744310 -46.7522591
46.0919403 -28.2380935 -46.8488820
45.7926579 -29.2454995 -46.5245694
46.1268611 -26.8830210 -47.5400910
46.1527370 -31.9764875 -44.1050380
46.2601781 -30.1349796 -45.4780124
46.2511741 -25.9497240 -47.8992350
46.4233346 -30.7910517 -44.8184758
46.4396477 -27.5515765 -46.9376221
46.2561660 -29.3709524 -46.0173897
46.1289473 -28.9779305 -46.3915914
46.2796800 -28.6247693 -46.4726985
46.8137264 -31.3251913 -43.9942144
46.4479961 -28.8551226 -46.1808257
46.8660071 -28.2560755 -46.1820364
46.1838506 -32.3248021 -43.7682681
46.7566289 -29.5039713 -45.4626530
46.7040241 -29.0015955 -45.8517745
46.7853174 -26.8595107 -47.0391214
46.6341861 -26.3620280 -47.4126227
46.7323512 -30.2902572 -44.9084491
46.8293913 -29.9211349 -45.0957529
46.5476401 -32.0050046 -43.6730348
47.0377579 -27.3532625 -46.5700291
47.0202714 -30.5179041 -44.4582328
47.1722223 -26.2082387 -47.0803045
46.8343720 -25.9151105 -47.4795587
47.1859910 -28.9693810 -45.4463288
47.3144352 -26.7963912 -46.6618612
47.2780690 -29.5829345 -44.9350998
47.8003211 -27.2867326 -46.0078344
47.8111356 -28.3678453 -45.3250557
47.0793508 -30.0717130 -44.7494835
47.5243777 -30.5857435 -43.9354964
47.5194417 -31.0775209 -43.5190238
46.8697771 -31.7825265 -43.5379073
47.2650751 -31.6501260 -43.2542488
47.4852882 -30.0366040 -44.4103032
47.7959514 -26.2764487 -46.5730689
47.6275161 -25.6621372 -47.0080003
47.2217798 -25.6130379 -47.3310351
47.6833098 -29.0631671 -44.9576266
47.8756428 -29.4887014 -44.4889478
48.0773225 -29.9674775 -43.9491682
48.1811985 -30.5862948 -43.3254838
48.2393466 -28.8890358 -44.6188040
48.5147722 -26.3324473 -46.0100695
48.3766012 -27.7747884 -45.2641062
48.7144589 -27.1185394 -45.4167090
48.3559743 -25.4119001 -46.5960540
48.5129319 -28.3062626 -44.8027439
48.4443158 -29.3881837 -44.0902114
48.4771915 -29.7200326 -43.8138619
48.4892763 -29.9773458 -43.5887575
49.0623042 -28.7135486 -44.0576375
49.0419939 -27.7762730 -44.7420776
48.8620959 -29.5661241 -43.5983799
49.3006185 -26.3964515 -45.3766584
49.1438247 -25.5355574 -45.9451973
49.2868461 -27.1073170 -44.9846610
49.6200062 -27.9836040 -44.1135429
49.6601425 -27.3993500 -44.4876403
50.0715151 -28.4018256 -43.3790646
49.5296009 -29.3951407 -43.1180224
49.7470535 -26.8021449 -44.7865836
49.9260835 -26.2235925 -44.9559577
49.8331264 -25.6017745 -45.3559868
50.1474291 -27.6064333 -43.8991971
50.0959270 -27.0808488 -44.3032309
50.2882823 -26.5317149 -44.4526747
36.3455527 -24.9167122 -55.2201532
36.4626497 -19.4978938 -55.7516851
36.7108360 -20.5488671 -55.5619933
37.0040126 -21.3554148 -55.3150475
37.1304527 -17.8801678 -55.3370826
36.5108997 -23.1632628 -55.4283895
36.8133150 -12.9181258 -55.2087277
37.1855088 -12.4720763 -54.9861565
37.0935723 -11.6746193 -54.9417622
36.9059965 -19.8458396 -55.4751009
37.0211862 -24.4967714 -54.8650399
37.0889604 -23.5638041 -54.9896136
36.9892828 -22.5194916 -55.2007854
36.9884185 -14.3921748 -55.2508011
36.8418954 -13.5600213 -55.2546903
36.9068943 -19.0967694 -55.4842763
36.9560421 -16.5274404 -55.3928204
36.9268470 -15.3056784 -55.3463399
36.9132422 -15.8890951 -55.3877614
37.3800360 -20.4262268 -55.1530048
37.3032764 -13.1442863 -54.9958348
37.7038792 -19.3992574 -54.9958982
37.4001376 -13.7804383 -55.0033003
37.4958515 -15.8514325 -55.0800338
37.5891067 -14.9393585 -54.9866073
37.6911275 -21.9860263 -54.8154674
38.0253978 -23.0823494 -54.4593073
37.6395099 -16.6949332 -55.0349951
37.8862023 -21.1233441 -54.7826625
37.6794487 -24.9815788 -54.3345138
37.7243981 -24.1415743 -54.4802919
37.6069881 -14.2863486 -54.9392216
37.7755351 -12.7419243 -54.7365807
37.6841836 -12.0825581 -54.7129735
38.7417413 -18.4394494 -54.4138402
38.2699445 -18.4727870 -54.6822883
38.4773128 -16.9984717 -54.5870736
38.1930061 -17.7329518 -54.7365658
37.8022119 -13.3820251 -54.7794141
38.0758196 -20.3130227 -54.7286235
37.8556699 -13.9031475 -54.7926649
38.3291952 -25.2608582 -53.8581684
38.1739438 -24.6108379 -54.1058257
38.3143611 -15.3864305 -54.6415523
38.1245576 -16.2045341 -54.7628850
38.5459289 -21.8677800 -54.2857163
38.1988585 -14.4044645 -54.6564236
38.7900174 -19.8198333 -54.3222502
38.5248475 -19.5410214 -54.4946864
38.2088833 -13.0583989 -54.5617938
38.4683795 -12.3025775 -54.3759130
38.6273861 -20.8282880 -54.3454029
38.2928886 -24.0230039 -54.1423596
38.2682234 -13.6513654 -54.5780882
38.7172997 -23.6807428 -53.9285988
39.1163155 -22.8612386 -53.7921377
38.7287475 -13.2046416 -54.3310568
38.6930853 -16.0884056 -54.4657670
38.8128757 -13.9434598 -54.3376021
38.9413051 -14.7075700 -54.3084480
38.7792177 -24.5411452 -53.7323654
38.9600843 -25.3895987 -53.4314327
39.1541608 -15.5025115 -54.2223155
39.2579585 -12.7528766 -54.0592112
39.2448977 -12.0633580 -54.0106073
37.8980041 -11.2158237 -54.5187369
38.9467143 -11.2899616 -54.0641248
39.1525067 -21.3013720 -53.9678335
39.3280946 -20.5897205 -53.9313555
39.3311940 -21.9335761 -53.7780859
39.3923745 -16.3490921 -54.1059785
39.6136604 -17.3367281 -53.9682060
38.9451012 -17.8692658 -54.3166175
39.3493585 -23.8806512 -53.4812547
39.3534899 -13.5080516 -54.0625043
39.3838845 -14.1744530 -54.0777706
39.5522192 -19.2640331 -53.9073274
39.5146571 -19.9512057 -53.8781956
39.9268828 -18.4004772 -53.7464917
39.5595767 -24.8526577 -53.1467572
39.9384275 -23.2716128 -53.1902909
39.9103872 -22.3472938 -53.3464514
39.7808403 -14.8275252 -53.9035536
39.9396904 -21.3129241 -53.4683987
39.9562418 -20.3552227 -53.5716675
39.9051830 -13.0831711 -53.7904613
39.8423336 -12.3445615 -53.7723117
39.8011245 -15.6556796 -53.8996533
40.0281288 -13.8798747 -53.7661128
39.9713479 -24.0840055 -53.0238152
39.9555340 -19.7512545 -53.6325946
39.8724452 -16.6786294 -53.8523830
40.1332155 -16.1929242 -53.7279025
40.3939895 -19.2537885 -53.4168407
40.4123813 -24.6942658 -52.5720157
40.5441262 -15.4096000 -53.5312705
40.6091549 -14.4631565 -53.5020716
40.3692275 -19.9547261 -53.3651076
40.3510034 -16.8466195 -53.5955764
40.5354425 -17.6637694 -53.4541719
40.7007970 -22.7525476 -52.7607836
40.5896045 -23.7426385 -52.6570715
40.6424552 -20.5994826 -53.1229116
40.4860564 -12.6774525 -53.5071492
40.4398739 -11.8518081 -53.4713119
39.7052355 -11.6186887 -53.7716039
40.4458493 -21.9756812 -53.0540310
40.7678932 -21.4375108 -52.9287867
40.4515490 -13.3198034 -53.5536148
40.7034196 -13.7739126 -53.4497574
40.7307856 -18.4738468 -53.2900281
40.8379994 -16.2341315 -53.3648320
40.9197435 -22.0469385 -52.7380407
40.9083478 -19.8375601 -53.0552939
41.3205475 -24.2781769 -52.0181917
41.3251109 -19.1231966 -52.8918654
41.1226265 -13.1742693 -53.2352291
41.1155708 -16.9988964 -53.1838983
41.2959754 -14.8640433 -53.1691387
41.3464308 -15.6490598 -53.1285331
41.2941016 -14.0293306 -53.1726144
41.1296077 -12.2679528 -53.1877801
41.2258059 -20.9951475 -52.7064502
41.4451733 -21.7150021 -52.4527952
41.4801054 -17.9547332 -52.9161952
41.1874838 -23.4113522 -52.3059741
41.2465632 -22.3690867 -52.4690077
41.3755365 -22.8806697 -52.2849485
41.3435884 -20.3290377 -52.7313538
41.5378250 -16.3300168 -53.0045889
41.3857289 -19.7860356 -52.7789108
41.9546589 -16.9933382 -52.7465753
41.9473834 -23.4200098 -51.7822355
41.7490080 -12.6483170 -52.9179685
42.0126170 -13.4920524 -52.8199896
41.9729725 -19.8677406 -52.4196886
42.4245298 -18.7388044 -52.3117445
41.9724807 -15.2357975 -52.8285205
41.8859683 -15.8513989 -52.8522953
41.9991016 -14.4188227 -52.8307222
41.8927372 -11.6267456 -52.7883470
41.0594083 -11.6101950 -53.1743653
41.9357233 -20.9039412 -52.2814021
41.7960919 -22.4632639 -52.0861074
42.2330238 -21.8047891 -51.9307815
42.2831401 -17.7234542 -52.5075905
42.0867205 -16.2912160 -52.7280569
41.9677123 -24.2062751 -51.5790954
42.4824469 -15.7863107 -52.5528193
42.5638147 -12.6731917 -52.5316000
42.5407402 -20.4476994 -51.9915596
42.8721644 -19.7723806 -51.9075915
42.5309911 -22.6025283 -51.5742972
42.4921177 -24.1422933 -51.2316152
42.8984948 -23.3984720 -51.1453860
42.5721295 -16.5335275 -52.4625368
42.6141247 -17.1721689 -52.3882359
42.8027660 -21.1859494 -51.6959764
42.8143032 -14.8793403 -52.4176918
42.5797403 -14.0419379 -52.5493771
42.8020842 -24.6828087 -50.8693866
42.8265221 -25.2204482 -50.6873466
42.7430235 -13.4677244 -52.4676852
42.9528542 -17.7928992 -52.1444306
42.8900607 -21.9634529 -51.4801480
43.2227179 -24.1631828 -50.7255718
43.3608256 -18.5333788 -51.8310778
43.1619808 -19.1691164 -51.8427864
43.1283303 -20.5159225 -51.6274720
43.3166027 -16.8558080 -52.0484596
42.9805368 -16.1512941 -52.2795506
43.0553183 -15.6206293 -52.2712134
43.2279408 -13.1666074 -52.2244126
43.4790626 -12.4104721 -52.0809218
42.8104103 -11.8894372 -52.3819029
43.4205122 -22.5744471 -51.0012433
43.3027968 -13.9703667 -52.1892495
43.7356085 -17.7751873 -51.7313257
43.4640385 -21.6517132 -51.1886552
43.4330367 -21.0164562 -51.3463169
43.3511101 -24.8946883 -50.4222773
43.7702611 -23.4993901 -50.5374111
43.5158610 -15.3240655 -52.0481504
43.5782261 -14.6895302 -52.0381704
43.4785485 -20.0776905 -51.5047759
43.4043556 -19.5968859 -51.6370013
43.4731841 -16.0066392 -52.0347133
43.6458550 -20.5950011 -51.3047799
44.0049730 -24.3679620 -50.1304939
43.7557288 -19.2138907 -51.5073538
44.1128388 -22.0384803 -50.6888777
44.1257879 -21.1275164 -50.8968756
43.7587872 -19.7557546 -51.4071397
44.0245271 -13.3022657 -51.8241264
44.2886800 -17.0928203 -51.5093990
43.9305976 -16.3857434 -51.7687835
44.1197455 -14.2549630 -51.7686233
44.2744792 -22.8699408 -50.3754690
44.1537052 -18.5367428 -51.4010601
43.9170115 -25.2103619 -49.9275997
44.2544557 -23.3780071 -50.2526313
44.3059988 -23.7464439 -50.1125157
44.0646484 -20.2301368 -51.1330813
44.3646647 -17.8728811 -51.3846427
44.0393388 -15.7481190 -51.7548993
44.1271476 -15.0370458 -51.7425090
44.3397611 -12.4314213 -51.6437702
43.9712517 -11.8192481 -51.8067367
43.3755927 -11.5384813 -52.0898029
44.0969057 -19.6610242 -51.2329042
44.3703532 -19.2569513 -51.1559509
44.5473008 -16.2543021 -51.4443778
44.7732769 -22.3030578 -50.2067134
44.6615517 -23.3950000 -49.9772765
44.9194573 -22.8962656 -49.9513932
44.6094871 -24.9622166 -49.5204516
44.8271185 -24.0883473 -49.6557914
44.6559973 -15.5077688 -51.4365062
44.8129550 -13.8093308 -51.4069721
44.8485836 -13.0213257 -51.3895005
44.5423350 -19.8470987 -50.9381704
44.8645242 -14.7107728 -51.3567626
44.7228029 -18.2801839 -51.1275977
44.7928533 -18.8458581 -50.9913377
44.6161516 -21.7004567 -50.4588336
44.8067114 -20.5362756 -50.6261811
44.8610187 -21.2462042 -50.4231751
44.9446030 -17.6967997 -51.0752164
45.2075116 -16.8347899 -51.0162637
44.8963568 -19.4401555 -50.8186668
44.9912176 -12.3570645 -51.2912124
44.6798168 -11.6023971 -51.4136590
45.0253896 -19.9465416 -50.6340154
45.3733653 -23.3831815 -49.5090224
45.1912731 -15.9625039 -51.1064492
45.2080742 -15.3284865 -51.1406660
45.2044345 -21.7818953 -50.0754565
45.2288203 -25.2184533 -48.9818864
45.2121608 -24.6313941 -49.2087230
45.3752950 -18.4590761 -50.7090464
45.2535972 -19.1077124 -50.6730676
45.5402546 -21.0658517 -50.0531830
45.5009304 -22.5200858 -49.6849492
45.6215367 -14.1151827 -50.9435907
45.5469415 -14.8942443 -50.9662665
45.3889966 -13.3935288 -51.0894917
45.4032719 -19.6305700 -50.4773296
45.4924330 -12.7449585 -51.0213859
45.4788171 -20.2635787 -50.2880141
45.7228869 -17.6492501 -50.6131612
45.5815718 -24.1110176 -49.1292514
45.5521047 -11.9073242 -50.9445369
45.8370112 -15.5491205 -50.7585965
45.7417592 -16.2866935 -50.7579595
45.8040051 -19.1616509 -50.3243469
45.7756706 -25.4563000 -48.4789275
46.0399836 -16.9013105 -50.5136698
46.0866578 -23.0139531 -49.1540991
45.9891669 -23.6276779 -49.0156412
45.9102727 -21.8295865 -49.6235043
45.9582247 -19.8511351 -50.0898249
45.7726754 -24.7560758 -48.7604626
46.1396314 -13.1994905 -50.6352298
46.2533683 -14.7461407 -50.5484529
46.3859662 -18.4793416 -50.0682220
46.1230949 -20.5250923 -49.8301685
45.9684692 -12.4815954 -50.7314056
46.1949557 -22.3997515 -49.2783673
46.3538431 -13.9875486 -50.5058989
46.3601016 -21.2382469 -49.5016649
46.4601032 -16.1897428 -50.3292568
46.5254448 -15.4349664 -50.3473803
46.4294255 -19.4372218 -49.8760268
46.3755056 -17.5364967 -50.2235517
46.5215892 -24.9452759 -48.1365733
46.2644398 -24.1519101 -48.6355089
46.4790128 -20.0650301 -49.7149602
46.3995710 -12.4647897 -50.4590347
46.1750440 -12.0034032 -50.5801216
46.5917028 -23.4505720 -48.6640520
46.8114614 -22.6685740 -48.7881117
46.6075540 -21.9336580 -49.1535179
46.8714498 -20.6286348 -49.3271761
46.7314161 -16.9410538 -50.0759743
46.9745062 -17.7464783 -49.8012938
46.9010025 -13.5671962 -50.1493253
46.8854755 -12.7140963 -50.1384363
46.8349010 -14.2711950 -50.1951277
47.0968597 -14.9639379 -50.0020161
46.9594523 -19.8551733 -49.4440608
46.9353721 -19.1944148 -49.5880395
46.8855686 -25.4524164 -47.6535000
47.0122695 -15.7613251 -50.0159822
46.8340665 -16.4861754 -50.0686280
46.9768681 -16.2424315 -50.0010252
47.0348224 -21.4049909 -49.0294248
47.0704399 -23.9944365 -48.1223501
47.4159233 -18.6681617 -49.3476689
46.7187837 -11.8455719 -50.2137654
47.5771911 -24.8490069 -47.4068336
47.2502001 -17.1818715 -49.7028157
47.1575744 -16.6465789 -49.8363972
47.2412668 -22.0225770 -48.7156361
47.5577600 -14.0850618 -49.7051030
47.2577587 -23.2156366 -48.2908711
47.6397090 -17.7313704 -49.3529774
47.5582033 -13.0878249 -49.6825613
47.4137701 -16.2213854 -49.7097820
47.5290120 -20.2510692 -48.9671305
47.5061908 -21.0164487 -48.8131456
47.5769788 -22.6008799 -48.2923836
47.4663973 -12.0315123 -49.6958457
47.6141945 -15.6021742 -49.6248007
47.4213883 -19.5229892 -49.1929203
47.5051552 -21.5610731 -48.6785471
47.8976704 -14.8993498 -49.4650938
48.1421128 -23.3439133 -47.6128161
47.7159433 -16.9214495 -49.4189560
47.7793962 -21.9491143 -48.3712330
48.0050594 -16.2564926 -49.2971167
48.1850095 -19.6307320 -48.6232340
48.2794978 -18.3913335 -48.7909913
48.7280525 -24.4134124 -46.7633754
48.3718254 -24.0200851 -47.1759848
48.3202450 -13.4916622 -49.1483696
48.2514836 -14.3077364 -49.2240041
47.8575565 -21.4112904 -48.4709628
48.2805930 -15.5845787 -49.1631553
48.1278636 -12.5605520 -49.2443293
48.1222309 -20.8248273 -48.4172776
48.1460020 -17.5376479 -49.0312204
48.0872095 -22.3973300 -48.0025448
48.3806245 -16.9673730 -48.9455760
48.2806265 -21.7100140 -48.0776727
48.5898964 -14.8983244 -48.9763543
48.6614779 -16.2997041 -48.8245748
48.6597754 -12.8230779 -48.8642938
48.6017726 -12.1477665 -48.8606356
48.1172651 -11.6719920 -49.1865464
48.5567302 -22.3905183 -47.6657078
48.7590581 -20.5277633 -48.0175801
48.6329310 -21.2116241 -47.9533896
48.8681681 -14.1732814 -48.7699136
48.6886427 -17.7109428 -48.6145727
48.7934239 -19.0673787 -48.2935421
49.0411483 -19.7832715 -47.9647070
48.9072390 -22.8121988 -47.2660102
49.3298732 -23.4537572 -46.7015803
48.8340743 -21.7831582 -47.6520956
49.1578169 -13.3367544 -48.5155508
48.9629321 -15.5920992 -48.6683659
49.1004735 -17.1082020 -48.3969189
49.0256809 -24.9600932 -46.3150367
49.0068309 -18.4202660 -48.2568070
49.3309908 -16.3051132 -48.3279489
49.0663759 -12.4882692 -48.5346690
48.9570126 -11.9092967 -48.5730134
48.6923084 -11.3120265 -48.7079807
49.2814630 -14.8568861 -48.4593883
49.0202792 -22.2923830 -47.3627225
49.1371490 -21.1890917 -47.5807637
49.2101870 -17.8586431 -48.2029505
49.3917391 -20.4999652 -47.5474559
49.3666902 -21.8693148 -47.2252555
49.5504774 -14.1237266 -48.2499711
49.3897125 -19.1187598 -47.8309430
49.4315326 -22.5803964 -46.9547622
49.8884022 -16.9470627 -47.8001386
49.6324599 -17.6707320 -47.8996709
49.7882068 -24.5805010 -45.8672456
49.6716425 -19.8436771 -47.4690087
49.6282913 -18.3878355 -47.7794781
49.7077592 -15.6161711 -48.0936393
49.7968644 -16.2618794 -47.9724295
49.8461127 -21.1880170 -47.0312014
49.6148244 -12.6815401 -48.1216833
49.3764877 -11.9218519 -48.2468158
49.9335527 -13.4829804 -47.9164869
49.9698855 -22.1155249 -46.6790646
49.8789847 -20.4269066 -47.1858904
49.9934815 -22.8923839 -46.3999733
49.9875471 -14.7205228 -47.9047410
50.1350425 -19.2090776 -47.2141318
50.1950346 -23.5781129 -45.9676795
49.9764383 -14.1152106 -47.9171947
50.1394272 -20.0008489 -47.0653325
50.3657684 -18.0443395 -47.2207516
49.9258675 -12.0774396 -47.8200801
50.1410142 -12.7236824 -47.6962104
50.4249334 -22.5006919 -46.1740047
50.6148338 -23.0352096 -45.8121821
36.5942791 -1.0175597 -53.3453897
36.8503891 0.6137510 -52.8654084
36.6121940 -2.3538866 -53.6083579
36.9081348 -1.7780492 -53.3381812
37.0034873 -9.2425803 -54.6628609
36.8378535 -9.9772010 -54.8444912
37.0126441 -0.2240962 -52.9545099
36.8145779 -3.0552407 -53.6457263
37.0102003 -10.7521629 -54.8685715
37.2060835 -7.7036992 -54.3282218
37.2663550 -8.4964214 -54.4294454
37.1878706 -6.7985444 -54.1813448
37.1264145 -3.9658654 -53.6727794
37.2398607 1.1867064 -52.5228307
37.0599069 1.8919670 -52.4679534
37.1272489 -4.8728664 -53.8507365
37.5511199 -5.3899148 -53.7508987
37.8027037 -6.2302365 -53.7958853
37.2359678 -2.4696933 -53.3126518
37.6274325 0.4833561 -52.4570309
37.5473201 -3.1866240 -53.3044264
37.6021639 -10.0231925 -54.5025244
37.4609083 -1.1516522 -52.9136732
37.8689840 -4.6131266 -53.4449406
37.8657766 -3.8207890 -53.2810390
37.7019569 -9.0964530 -54.3258041
37.6050100 1.6512903 -52.2054248
37.6494862 2.2893734 -52.0260818
37.0199643 2.6670014 -52.3135923
37.8284417 -7.1714646 -53.9548770
37.5396200 -8.1322324 -54.2475730
37.8807560 -7.8909127 -54.0551469
37.8608853 -0.3636699 -52.5188223
37.5363305 -1.9254201 -53.0427545
37.8297381 -8.4616728 -54.1708134
37.9924029 -2.5041348 -52.9324971
38.2567048 -3.2932584 -52.9743843
37.8114916 1.1792855 -52.1921106
38.2822007 -5.4274346 -53.4179360
38.0852632 -1.7036030 -52.7049564
38.2250920 -1.0136900 -52.4696931
38.3072868 -9.5161125 -54.1191623
38.4815596 -10.3815021 -54.1583262
38.2803753 0.1722249 -52.1548986
38.3263193 0.8584095 -51.9625545
38.5442227 -4.0378678 -52.9984944
38.2341482 -8.8663250 -54.0544279
38.3906141 -8.3162924 -53.8985208
38.4012349 -6.8401555 -53.6378510
38.7082249 -6.1876294 -53.3750094
38.5272615 -7.5870003 -53.7159592
38.2489674 1.7421498 -51.7922081
38.5581441 -0.4194962 -52.1413796
38.6123247 -4.7742818 -53.1272665
38.6455543 -2.7921149 -52.6638813
38.6527330 -2.1397956 -52.5066666
38.9623009 -3.4069421 -52.6496805
38.9458239 -8.9429179 -53.7542440
38.6537388 -1.4656676 -52.3447841
38.7393683 -0.9562063 -52.1735400
39.1820706 -5.3703152 -52.9914200
38.9038958 -9.7999452 -53.8971201
39.1468368 -7.0261257 -53.3421002
39.0297212 0.3046093 -51.6916402
38.9342830 -8.1518805 -53.6344163
38.9593951 1.2709625 -51.4838658
39.2334796 -10.4427347 -53.8414717
39.0573926 2.1966486 -51.1827134
38.3310802 2.7503159 -51.4897034
39.3668301 -2.6155245 -52.2524007
39.1763337 -1.7565469 -52.1369651
39.1888320 -4.4215396 -52.7784564
39.0600264 -3.9332146 -52.7278259
39.2154902 -0.6577105 -51.8352278
39.1203128 -7.7155428 -53.4803532
39.0472785 -1.2222775 -52.0722009
39.4431949 -6.2326258 -53.0569516
39.3090621 -3.7618186 -52.5669046
39.5595580 -3.4130632 -52.3563810
39.5554118 -9.7168209 -53.6055081
39.3541753 -8.3478149 -53.4856506
39.8987681 -8.8316761 -53.3278920
39.4579619 -1.2724450 -51.8616438
39.2800421 -8.0055073 -53.4622557
39.5278782 0.9239662 -51.2375422
39.5646952 1.6010796 -51.0324910
39.8877263 -1.8222079 -51.7733395
39.5930894 -10.9958109 -53.7558794
39.3042751 -4.0345541 -52.6346974
39.9640948 -4.7784070 -52.4980687
39.6667123 -4.0188357 -52.4545945
39.7327691 -7.8122276 -53.2318503
40.1094742 -6.8107829 -52.8842956
40.0843583 -5.7700248 -52.6753068
39.7112630 -0.1319832 -51.4159426
39.9724282 -0.9029728 -51.4782034
39.6607034 0.4233478 -51.2947440
39.9224050 -10.4684168 -53.5511039
39.9923027 -3.0667216 -52.0504899
40.0679037 -2.5275070 -51.8672541
40.0638320 -3.6085851 -52.1569438
40.4373519 -9.8150335 -53.2416329
40.0161333 1.2160956 -50.8640297
40.0627740 1.7614175 -50.6819710
39.7608615 2.2322626 -50.7376082
39.9379246 0.7273282 -51.0482825
40.5156091 -8.2256189 -52.9708825
40.4694304 -7.5409757 -52.8723560
40.2813517 -4.1133743 -52.1813892
40.0999784 0.2934079 -51.0725640
40.2954705 -0.2522565 -51.1131138
41.0833359 -6.2212981 -52.3467995
40.7352522 -5.2079624 -52.2516444
40.1520394 -11.1500407 -53.5330661
40.6009890 -1.4502939 -51.2834452
40.5841209 -2.2366780 -51.5162423
40.5106284 -2.8987250 -51.7390370
40.3872207 -3.3392857 -51.9238561
40.7771915 -8.9649484 -52.9753976
40.6483747 -0.7374394 -51.0516837
40.8316217 -7.0759668 -52.6329763
40.5594669 -10.6817046 -53.3023439
40.6160355 1.4982950 -50.4113100
40.3530672 2.2494227 -50.3586829
40.6159908 -4.5467657 -52.1350913
40.3889492 0.7781268 -50.7620461
40.4972695 -3.7017816 -51.9670583
40.6101868 0.2144528 -50.7937334
40.6740829 -11.2662576 -53.3173941
40.7370478 -0.2518373 -50.8584939
41.0587229 0.7136667 -50.3727160
41.0187691 -10.3570251 -53.0610159
41.3374044 -9.6801817 -52.8356284
41.1830395 -7.7823950 -52.6146665
40.8802368 -4.0274090 -51.8644005
41.1606953 -2.8027582 -51.3703823
40.8719964 -3.4231760 -51.6999401
41.0616919 -8.4224790 -52.7731515
41.2836410 -1.9324668 -51.0488637
41.2424728 -1.0851463 -50.8162677
41.4631478 1.5417646 -49.8575084
40.9717187 2.2112594 -49.9712080
41.0564952 -0.4944908 -50.7450327
41.0871245 0.0013142 -50.5759008
41.3331389 -7.0253089 -52.4143428
41.1395170 -11.0223545 -53.0820526
41.2155129 -4.6081725 -51.8638082
41.4327495 -8.8116946 -52.6747927
41.4451584 -5.3250715 -51.9598462
41.7906903 -3.7749200 -51.3238497
41.4201096 -8.3232215 -52.6059382
41.5810496 -0.4133833 -50.4094996
41.4944664 0.2241980 -50.2603278
41.7318195 -6.6752764 -52.1765277
41.7963602 -5.8491933 -51.9463792
41.6866578 -6.2576430 -52.1060005
41.9205502 -2.5587110 -50.8848391
41.6162051 -10.5793523 -52.8206751
41.8471396 -7.3697818 -52.2600487
42.0148820 -8.2696062 -52.3423553
41.7642929 0.7200897 -49.9312840
41.8070965 -4.7701364 -51.6245179
41.6536964 -1.5103344 -50.7155024
41.8902040 -1.0840826 -50.4417941
41.8315828 -1.9080775 -50.7381782
41.9989042 -9.1989413 -52.4885803
42.0882367 -10.0228935 -52.5536090
42.0065485 -5.2993558 -51.6876392
41.9943705 0.0819714 -49.9977767
42.3199236 -0.5636174 -50.0097573
42.2176868 -10.7543515 -52.5724925
42.0329086 -1.5714453 -50.5171530
42.1216823 -6.2908572 -51.9117340
42.3094481 -6.8903374 -51.9601889
42.3573032 0.5099467 -49.6212840
42.2322005 1.2252372 -49.4577177
42.5446294 -4.8489515 -51.2672067
42.5908379 -3.0535231 -50.6652407
43.0914946 -3.8880303 -50.6523326
42.4019583 -5.7137455 -51.6127199
42.5101630 -7.5705349 -52.0030782
42.2734916 -1.9917232 -50.5092926
42.5246917 -1.3910590 -50.1634702
42.7267700 -11.1709861 -52.3748323
42.4632952 -0.0114279 -49.7337990
42.5070710 -2.4562678 -50.5240746
42.5260887 -8.8377632 -52.2111058
42.5971895 -9.5510539 -52.2740185
42.6746532 -8.0928020 -52.0252995
42.5423160 -8.4192669 -52.1423146
42.7675769 -10.3482231 -52.2842519
42.8383686 0.8362744 -49.1904169
42.8628325 1.6266158 -48.8938801
42.1092734 2.1118268 -49.2448360
42.7770577 -6.3762604 -51.6114533
42.8529792 0.2004072 -49.4097285
42.7929759 -0.2939581 -49.6232435
42.9949202 -0.8437849 -49.6891588
42.8233035 -2.0739376 -50.2142385
42.8523049 -7.0721726 -51.7449528
43.1308001 -5.6429864 -51.2118861
43.3368497 -1.6191672 -49.7452542
42.9199077 -2.6017793 -50.3337756
43.2944223 -3.0344208 -50.2562262
43.3498509 -7.7345613 -51.6384691
42.9451019 -8.4728170 -51.9668646
43.2975776 -10.8276457 -52.0769283
43.0511460 -9.1055846 -52.0121083
43.1538299 -9.7725280 -52.0461313
43.5334854 -4.8734811 -50.7362932
43.3319397 -0.2585075 -49.2662005
43.3317050 0.4119565 -49.0148813
43.3918759 1.0382534 -48.7365499
43.3070920 -6.8139294 -51.4630117
43.3067419 -6.2527927 -51.3129719
43.6525419 -0.9436786 -49.3072718
43.3032364 -10.2919806 -52.0291924
43.3687381 -2.3781774 -49.9905795
43.4727743 1.5831647 -48.4794788
43.3056653 2.2368638 -48.3706668
42.6914804 2.3558617 -48.7643071
43.5170978 -8.6635277 -51.7266355
43.5697511 -9.3500363 -51.7978221
43.6707437 -5.9891548 -51.0379449
43.6775312 -5.4921829 -50.8685112
43.6461382 -9.9745719 -51.8280752
43.7768474 -3.4699801 -50.1177981
43.9838879 -2.7901947 -49.7530811
43.6696447 -6.4816824 -51.1909127
44.0622233 -4.1592196 -50.1875170
43.8999273 -7.0090792 -51.2058400
43.7362529 0.0762686 -48.8681123
43.8276231 0.5710218 -48.6074276
43.6617769 -10.5004106 -51.8697537
44.2156494 -8.3625801 -51.3252094
44.2173630 -7.6024942 -51.1791371
43.9548567 -11.0590076 -51.7619401
43.9370722 -0.4310698 -48.9255339
43.8323058 -2.1254849 -49.6142656
44.0108590 1.2010975 -48.2257418
44.1410728 -1.5626351 -49.2080525
43.7900908 1.8207548 -48.1630936
43.9785309 -9.0105040 -51.5513644
43.9818166 -5.2574780 -50.6180786
44.2126021 -4.8585800 -50.3464714
44.0932103 -9.6124057 -51.5618064
44.0810248 -5.7260995 -50.7221222
44.1920534 -6.3731009 -50.8688129
44.1132262 -10.3098080 -51.6173355
44.2417376 1.7761992 -47.8370152
43.9161807 2.3219436 -47.8953049
44.2294963 0.0789760 -48.5132001
44.1422015 -0.9392129 -48.9796735
44.2479588 0.6167801 -48.2801124
44.3099253 -2.2491359 -49.3488796
44.4158204 -3.4643838 -49.7253984
44.4017686 -5.3590341 -50.4110307
44.5190109 -9.1243135 -51.2808636
44.5707552 -10.7511999 -51.4089316
44.6698479 -7.0630531 -50.7979169
44.7633490 -9.9449214 -51.2316078
44.4923304 -0.6016277 -48.5949665
44.5853435 -5.8971229 -50.4868627
44.4937348 1.3600074 -47.7933474
44.6023494 0.8558957 -47.9085110
44.8480882 -2.7666728 -49.1814390
44.9345931 -7.8472914 -50.8386940
44.6196683 -4.5366078 -49.9913990
44.7347499 -4.0423358 -49.7404300
44.9924842 -8.6129047 -50.9459525
44.7928682 -6.4358106 -50.5405217
44.4542952 -1.1401550 -48.8369614
44.7224677 -1.9658909 -48.9610657
44.6411259 -1.4743622 -48.8311760
44.6480662 -4.9951798 -50.1365475
44.7392613 1.7296805 -47.4581122
44.4690920 2.2813561 -47.4792905
44.5532762 0.3770139 -48.1459722
44.7736606 -0.0612426 -48.1583513
44.9041054 -5.4247575 -50.1282923
45.0501405 -3.5470226 -49.3513532
45.0997464 -9.2622396 -50.9744622
44.8264591 -1.0954995 -48.5466346
45.0426899 -0.6092328 -48.1802337
44.8578857 1.2501149 -47.5453436
44.8959023 0.3928306 -47.8709266
45.0913385 -4.8088925 -49.7916564
44.9377671 -4.3872236 -49.7416556
45.0402983 -1.5727626 -48.5790670
45.3382507 -10.8157713 -50.9827435
45.1335087 0.7985787 -47.5079566
45.3322269 -2.1246024 -48.5873073
45.2994891 1.5157437 -47.0734611
45.0195745 2.2370466 -47.0371209
45.6426516 -9.7617619 -50.7019162
45.3530289 -6.7609530 -50.2947159
45.2579595 -7.3479200 -50.5347662
45.3997962 -0.0080905 -47.6388708
45.1596677 -6.0329926 -50.1772016
45.2889465 -4.1815881 -49.4335592
45.2650525 -1.1457927 -48.2342206
45.5697030 -8.2054557 -50.5300127
45.5497354 -7.6917163 -50.4392907
45.3746915 -3.1854727 -48.9934199
45.5600657 -2.7560967 -48.6869961
45.5508791 -5.4332870 -49.7089140
45.6048138 -8.8953795 -50.6228842
45.4384014 -1.5896290 -48.2876599
45.7759164 -6.1848350 -49.8226769
45.4786085 -0.7341233 -47.8928126
45.6128083 -3.6367485 -49.0072146
45.7174368 0.7822615 -47.0314659
45.6833206 -4.7130371 -49.3615419
45.7548983 -1.2527364 -47.8991084
45.8929949 -4.1482481 -49.0083471
45.7850732 -3.2039222 -48.7148426
45.9421575 1.5036905 -46.5082526
45.6265844 2.2943225 -46.4621559
45.7943492 -1.8238063 -48.1169969
45.9033139 -2.3462081 -48.2635275
46.1450517 -11.2559833 -50.5425371
46.0101031 -10.4681402 -50.5555049
45.6990786 -7.2895503 -50.2361245
46.0374206 -6.8676821 -49.8724990
45.9276997 -0.6549641 -47.4986248
46.0948311 -5.7202657 -49.4403094
46.1646020 -5.1152832 -49.1702259
46.2114736 0.0060629 -46.9683819
46.1856872 -7.6951445 -50.0030331
46.2425053 -9.0823304 -50.2331369
46.0700095 -8.4554097 -50.2505191
46.4847274 -9.8993266 -50.1834303
46.4298315 -6.2512667 -49.3957102
46.2620743 -3.5524515 -48.5124215
46.0955575 -2.8798932 -48.3543277
46.3015288 0.8234732 -46.5107486
46.1112931 -1.6016004 -47.7736145
46.2746583 -1.2167733 -47.4679433
46.1135507 -4.5795082 -49.0136296
46.2222919 -2.0112270 -47.8730276
46.3766903 -4.2264662 -48.6921817
46.4554317 -0.7440730 -47.1056588
46.3963971 -2.4642847 -47.9472205
46.4655235 -10.6403092 -50.2873845
46.5569198 1.4290154 -45.9513403
46.1479761 2.0816810 -46.0302159
46.5133786 -1.7138505 -47.5040227
46.4390777 -4.6875454 -48.8167033
46.5485528 -5.6098774 -49.0785502
46.6330051 -2.9548933 -47.9889400
46.6836393 -8.3871819 -49.8039536
46.6730110 -6.9716349 -49.4603962
46.7067547 0.3079000 -46.4115217
46.9808280 -0.5276455 -46.5476885
46.7216931 -5.0533605 -48.7410463
46.8939617 -1.3566336 -47.0140465
46.6019250 -2.1283887 -47.6315171
46.6981754 -11.1055011 -50.1776896
46.6949940 0.7973697 -46.1795293
46.9603986 -9.1282958 -49.7369878
47.0265783 -7.6302416 -49.3825488
46.7159972 -3.9426340 -48.3319685
46.9206572 -3.4629419 -47.9821190
46.8001887 -4.4701565 -48.4654568
47.0006652 -10.5316592 -49.9078222
47.1212976 -9.7884554 -49.7275069
46.8355343 -5.9718005 -49.0093715
46.9793640 -6.4233351 -49.0671843
47.0349379 0.7822882 -45.8513536
47.0019281 1.2853746 -45.5688946
46.8511432 1.7183938 -45.4483628
46.5331115 2.2605483 -45.4837792
46.9648391 -1.9985656 -47.2710803
46.8836799 -2.4841600 -47.5771092
47.0266119 -5.5481959 -48.7034433
47.1619219 -2.9421404 -47.5671664
47.3423265 -4.8977751 -48.2013486
47.1866727 -4.0532569 -48.0034277
47.1630655 0.1319963 -46.0719503
46.8981192 0.5247011 -46.1388677
47.1156240 -11.2925023 -49.9013811
47.2729206 -6.9419472 -49.0150601
47.5168712 -8.3467988 -49.1655916
47.6666242 -1.4494592 -46.3531911
47.7682538 -0.6092108 -45.8342172
47.3722555 -1.8794348 -46.8511879
47.3566018 0.9278537 -45.4096794
47.2335257 1.5088499 -45.1329090
47.1679792 -6.0135792 -48.7797335
47.6802215 -9.3561234 -49.2312163
47.4494696 -6.3663810 -48.6911125
47.5081578 -3.4142314 -47.4779345
47.6953425 -7.4361409 -48.8159955
47.4940538 -10.1430351 -49.4982526
47.6329997 -10.9638572 -49.4860411
47.5440137 -5.7263281 -48.3686402
47.4527813 -2.4901358 -47.0945500
47.5988016 0.2661284 -45.5481261
47.8295386 -4.2021777 -47.5216210
47.5648493 1.0600257 -45.0630113
47.6986133 0.6651370 -45.1862700
47.4826247 -2.9392508 -47.2995266
47.7366932 -6.8055033 -48.6081801
47.6031788 1.4102451 -44.7209328
47.3222099 2.1098787 -44.5446707
46.9578765 2.0380372 -45.0925678
47.8075743 -2.1311550 -46.5756655
48.3166128 -5.2575916 -47.5290082
47.9862541 -6.2558306 -48.2040606
48.0409302 -10.1650599 -49.0730219
48.1860973 -10.9236613 -49.0593277
47.7492660 -2.9748860 -47.0702276
48.1805168 -3.4296261 -46.8701497
47.9211025 0.8396556 -44.7536521
47.6843901 1.6896820 -44.3594567
47.9305349 1.2864829 -44.3518981
48.2526049 -7.8921821 -48.4552085
48.2347049 -7.0248120 -48.2404828
48.0482578 -2.6786483 -46.6320701
48.0327755 0.2710491 -45.0388789
48.1377020 -0.2958906 -45.2787392
47.9433909 1.6464381 -44.0123416
47.6870537 1.9741578 -44.1131964
48.1461920 -8.6787585 -48.7274155
48.4662987 -4.2207888 -46.9623357
48.3732447 -1.4400700 -45.6388146
48.4486930 -0.8961460 -45.2640094
48.3910106 -2.1967965 -46.0308269
48.4011695 -9.3870210 -48.6483909
48.2483320 1.2547931 -43.9051427
48.2110716 1.6336459 -43.6272956
47.9415320 2.0006443 -43.7206067
48.2125953 0.8946051 -44.2835614
48.3970270 0.3540866 -44.4717109
48.6283191 -6.3699083 -47.6763919
48.4275743 -0.1574050 -44.8388308
48.4873541 -10.4689589 -48.7597845
48.4119244 -9.9731777 -48.7471893
48.5758260 -2.9371115 -46.2440401
48.5394970 -0.5702666 -44.9757911
49.0084328 -7.4480432 -47.6452634
48.5614240 0.7460884 -43.8781083
49.0109660 -3.6800075 -46.1836159
48.6289300 1.2879299 -43.2861336
48.9836335 -4.5879721 -46.6489233
48.9509664 -5.8398745 -47.2058840
49.1425842 -5.2932412 -46.8104221
48.7250090 -8.5164448 -48.1825769
48.6993082 -0.1564669 -44.4536060
48.9027947 0.0558414 -43.9383090
48.7237759 -9.9047944 -48.4706685
48.9735752 -2.0200436 -45.3118235
48.9117317 -1.4339200 -45.0367518
48.7285741 -0.4819106 -44.6683355
